39.000 35.000 -0.031
39.000 36.000 -0.035
39.000 37.000 -0.039
39.000 38.000 -0.043
39.000 39.000 -0.047
39.000 40.000 -0.051
39.000 41.000 -0.055
39.000 42.000 -0.059
39.000 43.000 -0.063
39.000 44.000 -0.068
39.000 45.000 -0.072
39.000 46.000 -0.076
39.000 47.000 -0.080
39.000 48.000 -0.084
39.000 49.000 -0.088
39.000 50.000 -0.092
39.000 51.000 -0.095
39.000 52.000 -0.099
39.000 53.000 -0.103
39.000 54.000 -0.107
39.000 55.000 -0.111
39.000 56.000 -0.114
39.000 57.000 -0.118
39.000 58.000 -0.121
39.000 59.000 -0.124
39.000 60.000 -0.128
40.000 -60.000 0.105
40.000 -59.000 0.101
40.000 -58.000 0.097
40.000 -57.000 0.093
40.000 -56.000 0.089
40.000 -55.000 0.085
40.000 -54.000 0.081
40.000 -53.000 0.078
40.000 -52.000 0.075
40.000 -51.000 0.072
40.000 -50.000 0.069
40.000 -49.000 0.066
40.000 -48.000 0.064
40.000 -47.000 0.061
40.000 -46.000 0.059
40.000 -45.000 0.058
40.000 -44.000 0.056
40.000 -43.000 0.055
40.000 -42.000 0.054
40.000 -41.000 0.054
40.000 -40.000 0.055
40.000 -39.000 0.056
40.000 -38.000 0.058
40.000 -37.000 0.060
40.000 -36.000 0.062
40.000 -35.000 0.064
40.000 -34.000 0.067
40.000 -33.000 0.070
40.000 -32.000 0.076
40.000 -31.000 0.082
40.000 -30.000 0.090
40.000 -29.000 0.098
40.000 -28.000 0.106
40.000 -27.000 0.114
40.000 -26.000 0.123
40.000 -25.000 0.131
40.000 -24.000 0.140
40.000 -23.000 0.149
40.000 -22.000 0.161
40.000 -21.000 0.173
40.000 -20.000 0.185
40.000 -19.000 0.193
40.000 -18.000 0.198
40.000 -17.000 0.202
40.000 -16.000 0.204
40.000 -15.000 0.205
40.000 -14.000 0.204
40.000 -13.000 0.203
40.000 -12.000 0.201
40.000 -11.000 0.199
40.000 -10.000 0.195
40.000 -9.000 0.187
40.000 -8.000 0.174
40.000 -7.000 0.156
40.000 -6.000 0.137
40.000 -5.000 0.120
40.000 -4.000 0.105
40.000 -3.000 0.089
40.000 -2.000 0.073
40.000 -1.000 0.057
40.000 0.000 0.041
40.000 1.000 0.028
40.000 2.000 0.022
40.000 3.000 0.020
40.000 4.000 0.018
40.000 5.000 0.017
40.000 6.000 0.014
40.000 7.000 0.008
40.000 8.000 0.002
40.000 9.000 0.001
40.000 10.000 0.006
40.000 11.000 0.013
40.000 12.000 0.022
40.000 13.000 0.029
40.000 14.000 0.034
40.000 15.000 0.036
40.000 16.000 0.036
40.000 17.000 0.035
40.000 18.000 0.033
40.000 19.000 0.032
40.000 20.000 0.031
40.000 21.000 0.027
40.000 22.000 0.022
40.000 23.000 0.018
40.000 24.000 0.013
40.000 25.000 0.008
40.000 26.000 0.005
40.000 27.000 0.001
40.000 28.000 -0.003
40.000 29.000 -0.006
40.000 30.000 -0.010
40.000 31.000 -0.013
40.000 32.000 -0.016
40.000 33.000 -0.020
40.000 34.000 -0.023
40.000 35.000 -0.027
40.000 36.000 -0.031
40.000 37.000 -0.035
40.000 38.000 -0.039
40.000 39.000 -0.043
40.000 40.000 -0.047
40.000 41.000 -0.052
40.000 42.000 -0.056
40.000 43.000 -0.060
40.000 44.000 -0.064
40.000 45.000 -0.068
40.000 46.000 -0.072
40.000 47.000 -0.076
40.000 48.000 -0.080
40.000 49.000 -0.084
40.000 50.000 -0.088
40.000 51.000 -0.092
40.000 52.000 -0.096
40.000 53.000 -0.100
40.000 54.000 -0.104
40.000 55.000 -0.108
40.000 56.000 -0.111
40.000 57.000 -0.115
40.000 58.000 -0.118
40.000 59.000 -0.122
40.000 60.000 -0.125
41.000 -60.000 0.107
41.000 -59.000 0.103
41.000 -58.000 0.099
41.000 -57.000 0.095
41.000 -56.000 0.091
41.000 -55.000 0.087
41.000 -54.000 0.083
41.000 -53.000 0.079
41.000 -52.000 0.076
41.000 -51.000 0.073
41.000 -50.000 0.070
41.000 -49.000 0.067
41.000 -48.000 0.064
41.000 -47.000 0.062
41.000 -46.000 0.059
41.000 -45.000 0.057
41.000 -44.000 0.056
41.000 -43.000 0.054
41.000 -42.000 0.053
41.000 -41.000 0.053
41.000 -40.000 0.053
41.000 -39.000 0.054
41.000 -38.000 0.056
41.000 -37.000 0.058
41.000 -36.000 0.059
41.000 -35.000 0.061
41.000 -34.000 0.064
41.000 -33.000 0.067
41.000 -32.000 0.072
41.000 -31.000 0.079
41.000 -30.000 0.086
41.000 -29.000 0.094
41.000 -28.000 0.103
41.000 -27.000 0.111
41.000 -26.000 0.119
41.000 -25.000 0.127
41.000 -24.000 0.136
41.000 -23.000 0.145
41.000 -22.000 0.156
41.000 -21.000 0.168
41.000 -20.000 0.179
41.000 -19.000 0.186
41.000 -18.000 0.191
41.000 -17.000 0.195
41.000 -16.000 0.197
41.000 -15.000 0.198
41.000 -14.000 0.198
41.000 -13.000 0.197
41.000 -12.000 0.196
41.000 -11.000 0.194
41.000 -10.000 0.191
41.000 -9.000 0.186
41.000 -8.000 0.175
41.000 -7.000 0.159
41.000 -6.000 0.141
41.000 -5.000 0.125
41.000 -4.000 0.110
41.000 -3.000 0.095
41.000 -2.000 0.080
41.000 -1.000 0.064
41.000 0.000 0.048
41.000 1.000 0.038
41.000 2.000 0.033
41.000 3.000 0.031
41.000 4.000 0.029
41.000 5.000 0.027
41.000 6.000 0.024
41.000 7.000 0.019
41.000 8.000 0.013
41.000 9.000 0.010
41.000 10.000 0.013
41.000 11.000 0.019
41.000 12.000 0.028
41.000 13.000 0.035
41.000 14.000 0.040
41.000 15.000 0.041
41.000 16.000 0.041
41.000 17.000 0.040
41.000 18.000 0.038
41.000 19.000 0.036
41.000 20.000 0.034
41.000 21.000 0.031
41.000 22.000 0.026
41.000 23.000 0.022
41.000 24.000 0.017
41.000 25.000 0.012
41.000 26.000 0.008
41.000 27.000 0.005
41.000 28.000 0.001
41.000 29.000 -0.003
41.000 30.000 -0.006
41.000 31.000 -0.009
41.000 32.000 -0.013
41.000 33.000 -0.016
41.000 34.000 -0.020
41.000 35.000 -0.024
41.000 36.000 -0.028
41.000 37.000 -0.032
41.000 38.000 -0.036
41.000 39.000 -0.040
41.000 40.000 -0.044
41.000 41.000 -0.048
41.000 42.000 -0.053
41.000 43.000 -0.057
41.000 44.000 -0.061
41.000 45.000 -0.065
41.000 46.000 -0.069
41.000 47.000 -0.073
41.000 48.000 -0.077
41.000 49.000 -0.081
41.000 50.000 -0.085
41.000 51.000 -0.089
41.000 52.000 -0.093
41.000 53.000 -0.097
41.000 54.000 -0.101
41.000 55.000 -0.105
41.000 56.000 -0.108
41.000 57.000 -0.112
41.000 58.000 -0.115
41.000 59.000 -0.119
41.000 60.000 -0.122
42.000 -60.000 0.109
42.000 -59.000 0.105
42.000 -58.000 0.101
42.000 -57.000 0.096
42.000 -56.000 0.092
42.000 -55.000 0.088
42.000 -54.000 0.084
42.000 -53.000 0.080
42.000 -52.000 0.077
42.000 -51.000 0.073
42.000 -50.000 0.070
42.000 -49.000 0.067
42.000 -48.000 0.064
42.000 -47.000 0.062
42.000 -46.000 0.059
42.000 -45.000 0.057
42.000 -44.000 0.055
42.000 -43.000 0.053
42.000 -42.000 0.052
42.000 -41.000 0.051
42.000 -40.000 0.052
42.000 -39.000 0.053
42.000 -38.000 0.054
42.000 -37.000 0.055
42.000 -36.000 0.056
42.000 -35.000 0.058
42.000 -34.000 0.061
42.000 -33.000 0.064
42.000 -32.000 0.068
42.000 -31.000 0.075
42.000 -30.000 0.082
42.000 -29.000 0.090
42.000 -28.000 0.098
42.000 -27.000 0.106
42.000 -26.000 0.114
42.000 -25.000 0.123
42.000 -24.000 0.131
42.000 -23.000 0.139
42.000 -22.000 0.151
42.000 -21.000 0.163
42.000 -20.000 0.172
42.000 -19.000 0.179
42.000 -18.000 0.183
42.000 -17.000 0.187
42.000 -16.000 0.190
42.000 -15.000 0.191
42.000 -14.000 0.191
42.000 -13.000 0.191
42.000 -12.000 0.190
42.000 -11.000 0.189
42.000 -10.000 0.187
42.000 -9.000 0.183
42.000 -8.000 0.175
42.000 -7.000 0.161
42.000 -6.000 0.144
42.000 -5.000 0.128
42.000 -4.000 0.115
42.000 -3.000 0.101
42.000 -2.000 0.086
42.000 -1.000 0.070
42.000 0.000 0.056
42.000 1.000 0.048
42.000 2.000 0.044
42.000 3.000 0.040
42.000 4.000 0.038
42.000 5.000 0.037
42.000 6.000 0.034
42.000 7.000 0.029
42.000 8.000 0.024
42.000 9.000 0.020
42.000 10.000 0.021
42.000 11.000 0.026
42.000 12.000 0.033
42.000 13.000 0.041
42.000 14.000 0.045
42.000 15.000 0.046
42.000 16.000 0.046
42.000 17.000 0.045
42.000 18.000 0.042
42.000 19.000 0.040
42.000 20.000 0.038
42.000 21.000 0.035
42.000 22.000 0.030
42.000 23.000 0.026
42.000 24.000 0.021
42.000 25.000 0.016
42.000 26.000 0.012
42.000 27.000 0.008
42.000 28.000 0.005
42.000 29.000 0.001
42.000 30.000 -0.002
42.000 31.000 -0.006
42.000 32.000 -0.009
42.000 33.000 -0.013
42.000 34.000 -0.017
42.000 35.000 -0.020
42.000 36.000 -0.024
42.000 37.000 -0.028
42.000 38.000 -0.032
42.000 39.000 -0.037
42.000 40.000 -0.041
42.000 41.000 -0.045
42.000 42.000 -0.049
42.000 43.000 -0.054
42.000 44.000 -0.058
42.000 45.000 -0.062
42.000 46.000 -0.066
42.000 47.000 -0.070
42.000 48.000 -0.074
42.000 49.000 -0.078
42.000 50.000 -0.082
42.000 51.000 -0.086
42.000 52.000 -0.090
42.000 53.000 -0.094
42.000 54.000 -0.098
42.000 55.000 -0.102
42.000 56.000 -0.105
42.000 57.000 -0.109
42.000 58.000 -0.112
42.000 59.000 -0.116
42.000 60.000 -0.119
43.000 -60.000 0.110
43.000 -59.000 0.106
43.000 -58.000 0.102
43.000 -57.000 0.098
43.000 -56.000 0.094
43.000 -55.000 0.090
43.000 -54.000 0.085
43.000 -53.000 0.081
43.000 -52.000 0.078
43.000 -51.000 0.074
43.000 -50.000 0.071
43.000 -49.000 0.068
43.000 -48.000 0.065
43.000 -47.000 0.062
43.000 -46.000 0.059
43.000 -45.000 0.057
43.000 -44.000 0.055
43.000 -43.000 0.053
43.000 -42.000 0.051
43.000 -41.000 0.050
43.000 -40.000 0.050
43.000 -39.000 0.051
43.000 -38.000 0.052
43.000 -37.000 0.052
43.000 -36.000 0.053
43.000 -35.000 0.055
43.000 -34.000 0.057
43.000 -33.000 0.060
43.000 -32.000 0.065
43.000 -31.000 0.071
43.000 -30.000 0.078
43.000 -29.000 0.086
43.000 -28.000 0.094
43.000 -27.000 0.102
43.000 -26.000 0.109
43.000 -25.000 0.117
43.000 -24.000 0.125
43.000 -23.000 0.134
43.000 -22.000 0.145
43.000 -21.000 0.156
43.000 -20.000 0.164
43.000 -19.000 0.170
43.000 -18.000 0.175
43.000 -17.000 0.178
43.000 -16.000 0.181
43.000 -15.000 0.184
43.000 -14.000 0.184
43.000 -13.000 0.184
43.000 -12.000 0.184
43.000 -11.000 0.183
43.000 -10.000 0.182
43.000 -9.000 0.179
43.000 -8.000 0.173
43.000 -7.000 0.162
43.000 -6.000 0.146
43.000 -5.000 0.131
43.000 -4.000 0.119
43.000 -3.000 0.105
43.000 -2.000 0.091
43.000 -1.000 0.075
43.000 0.000 0.064
43.000 1.000 0.058
43.000 2.000 0.053
43.000 3.000 0.049
43.000 4.000 0.047
43.000 5.000 0.045
43.000 6.000 0.043
43.000 7.000 0.039
43.000 8.000 0.034
43.000 9.000 0.030
43.000 10.000 0.029
43.000 11.000 0.032
43.000 12.000 0.039
43.000 13.000 0.046
43.000 14.000 0.050
43.000 15.000 0.052
43.000 16.000 0.051
43.000 17.000 0.050
43.000 18.000 0.047
43.000 19.000 0.044
43.000 20.000 0.041
43.000 21.000 0.039
43.000 22.000 0.034
43.000 23.000 0.029
43.000 24.000 0.025
43.000 25.000 0.020
43.000 26.000 0.016
43.000 27.000 0.012
43.000 28.000 0.008
43.000 29.000 0.005
43.000 30.000 0.001
43.000 31.000 -0.002
43.000 32.000 -0.006
43.000 33.000 -0.009
43.000 34.000 -0.013
43.000 35.000 -0.017
43.000 36.000 -0.021
43.000 37.000 -0.025
43.000 38.000 -0.029
43.000 39.000 -0.033
43.000 40.000 -0.038
43.000 41.000 -0.042
43.000 42.000 -0.046
43.000 43.000 -0.050
43.000 44.000 -0.055
43.000 45.000 -0.059
43.000 46.000 -0.063
43.000 47.000 -0.067
43.000 48.000 -0.071
43.000 49.000 -0.075
43.000 50.000 -0.079
43.000 51.000 -0.083
43.000 52.000 -0.087
43.000 53.000 -0.091
43.000 54.000 -0.095
43.000 55.000 -0.099
43.000 56.000 -0.102
43.000 57.000 -0.106
43.000 58.000 -0.110
43.000 59.000 -0.113
43.000 60.000 -0.117
44.000 -60.000 0.112
44.000 -59.000 0.108
44.000 -58.000 0.104
44.000 -57.000 0.100
44.000 -56.000 0.095
44.000 -55.000 0.091
44.000 -54.000 0.087
44.000 -53.000 0.083
44.000 -52.000 0.079
44.000 -51.000 0.075
44.000 -50.000 0.072
44.000 -49.000 0.069
44.000 -48.000 0.065
44.000 -47.000 0.062
44.000 -46.000 0.059
44.000 -45.000 0.056
44.000 -44.000 0.054
44.000 -43.000 0.052
44.000 -42.000 0.050
44.000 -41.000 0.049
44.000 -40.000 0.049
44.000 -39.000 0.049
44.000 -38.000 0.049
44.000 -37.000 0.049
44.000 -36.000 0.050
44.000 -35.000 0.052
44.000 -34.000 0.054
44.000 -33.000 0.056
44.000 -32.000 0.061
44.000 -31.000 0.067
44.000 -30.000 0.074
44.000 -29.000 0.081
44.000 -28.000 0.089
44.000 -27.000 0.096
44.000 -26.000 0.104
44.000 -25.000 0.112
44.000 -24.000 0.120
44.000 -23.000 0.128
44.000 -22.000 0.139
44.000 -21.000 0.149
44.000 -20.000 0.156
44.000 -19.000 0.161
44.000 -18.000 0.165
44.000 -17.000 0.169
44.000 -16.000 0.173
44.000 -15.000 0.175
44.000 -14.000 0.176
44.000 -13.000 0.177
44.000 -12.000 0.177
44.000 -11.000 0.177
44.000 -10.000 0.176
44.000 -9.000 0.174
44.000 -8.000 0.169
44.000 -7.000 0.162
44.000 -6.000 0.148
44.000 -5.000 0.134
44.000 -4.000 0.122
44.000 -3.000 0.109
44.000 -2.000 0.094
44.000 -1.000 0.081
44.000 0.000 0.073
44.000 1.000 0.066
44.000 2.000 0.061
44.000 3.000 0.057
44.000 4.000 0.054
44.000 5.000 0.052
44.000 6.000 0.050
44.000 7.000 0.047
44.000 8.000 0.043
44.000 9.000 0.040
44.000 10.000 0.038
44.000 11.000 0.040
44.000 12.000 0.045
44.000 13.000 0.051
44.000 14.000 0.056
44.000 15.000 0.057
44.000 16.000 0.056
44.000 17.000 0.055
44.000 18.000 0.052
44.000 19.000 0.049
44.000 20.000 0.045
44.000 21.000 0.042
44.000 22.000 0.038
44.000 23.000 0.033
44.000 24.000 0.028
44.000 25.000 0.024
44.000 26.000 0.020
44.000 27.000 0.016
44.000 28.000 0.012
44.000 29.000 0.008
44.000 30.000 0.005
44.000 31.000 0.001
44.000 32.000 -0.002
44.000 33.000 -0.006
44.000 34.000 -0.010
44.000 35.000 -0.014
44.000 36.000 -0.017
44.000 37.000 -0.022
44.000 38.000 -0.026
44.000 39.000 -0.030
44.000 40.000 -0.034
44.000 41.000 -0.039
44.000 42.000 -0.043
44.000 43.000 -0.047
44.000 44.000 -0.051
44.000 45.000 -0.055
44.000 46.000 -0.060
44.000 47.000 -0.064
44.000 48.000 -0.068
44.000 49.000 -0.072
44.000 50.000 -0.076
44.000 51.000 -0.080
44.000 52.000 -0.084
44.000 53.000 -0.088
44.000 54.000 -0.092
44.000 55.000 -0.096
44.000 56.000 -0.099
44.000 57.000 -0.103
44.000 58.000 -0.107
44.000 59.000 -0.110
44.000 60.000 -0.114
45.000 -60.000 0.114
45.000 -59.000 0.110
45.000 -58.000 0.106
45.000 -57.000 0.101
45.000 -56.000 0.097
45.000 -55.000 0.093
45.000 -54.000 0.088
45.000 -53.000 0.084
45.000 -52.000 0.080
45.000 -51.000 0.076
45.000 -50.000 0.073
45.000 -49.000 0.069
45.000 -48.000 0.066
45.000 -47.000 0.062
45.000 -46.000 0.059
45.000 -45.000 0.056
45.000 -44.000 0.054
45.000 -43.000 0.051
45.000 -42.000 0.049
45.000 -41.000 0.048
45.000 -40.000 0.047
45.000 -39.000 0.047
45.000 -38.000 0.047
45.000 -37.000 0.046
45.000 -36.000 0.047
45.000 -35.000 0.048
45.000 -34.000 0.050
45.000 -33.000 0.053
45.000 -32.000 0.057
45.000 -31.000 0.062
45.000 -30.000 0.069
45.000 -29.000 0.076
45.000 -28.000 0.083
45.000 -27.000 0.091
45.000 -26.000 0.099
45.000 -25.000 0.106
45.000 -24.000 0.114
45.000 -23.000 0.122
45.000 -22.000 0.132
45.000 -21.000 0.141
45.000 -20.000 0.147
45.000 -19.000 0.152
45.000 -18.000 0.156
45.000 -17.000 0.160
45.000 -16.000 0.164
45.000 -15.000 0.166
45.000 -14.000 0.168
45.000 -13.000 0.169
45.000 -12.000 0.169
45.000 -11.000 0.170
45.000 -10.000 0.169
45.000 -9.000 0.168
45.000 -8.000 0.165
45.000 -7.000 0.159
45.000 -6.000 0.148
45.000 -5.000 0.135
45.000 -4.000 0.124
45.000 -3.000 0.111
45.000 -2.000 0.098
45.000 -1.000 0.087
45.000 0.000 0.080
45.000 1.000 0.074
45.000 2.000 0.068
45.000 3.000 0.063
45.000 4.000 0.059
45.000 5.000 0.058
45.000 6.000 0.056
45.000 7.000 0.053
45.000 8.000 0.051
45.000 9.000 0.049
45.000 10.000 0.047
45.000 11.000 0.047
45.000 12.000 0.051
45.000 13.000 0.056
45.000 14.000 0.061
45.000 15.000 0.062
45.000 16.000 0.061
45.000 17.000 0.060
45.000 18.000 0.057
45.000 19.000 0.053
45.000 20.000 0.049
45.000 21.000 0.046
45.000 22.000 0.042
45.000 23.000 0.037
45.000 24.000 0.032
45.000 25.000 0.028
45.000 26.000 0.023
45.000 27.000 0.019
45.000 28.000 0.016
45.000 29.000 0.012
45.000 30.000 0.008
45.000 31.000 0.005
45.000 32.000 0.001
45.000 33.000 -0.002
45.000 34.000 -0.006
45.000 35.000 -0.010
45.000 36.000 -0.014
45.000 37.000 -0.018
45.000 38.000 -0.022
45.000 39.000 -0.027
45.000 40.000 -0.031
45.000 41.000 -0.035
45.000 42.000 -0.040
45.000 43.000 -0.044
45.000 44.000 -0.048
45.000 45.000 -0.052
45.000 46.000 -0.056
45.000 47.000 -0.061
45.000 48.000 -0.065
45.000 49.000 -0.069
45.000 50.000 -0.073
45.000 51.000 -0.077
45.000 52.000 -0.081
45.000 53.000 -0.085
45.000 54.000 -0.089
45.000 55.000 -0.093
45.000 56.000 -0.097
45.000 57.000 -0.100
45.000 58.000 -0.104
45.000 59.000 -0.108
45.000 60.000 -0.111
46.000 -60.000 0.116
46.000 -59.000 0.112
46.000 -58.000 0.107
46.000 -57.000 0.103
46.000 -56.000 0.099
46.000 -55.000 0.094
46.000 -54.000 0.090
46.000 -53.000 0.085
46.000 -52.000 0.081
46.000 -51.000 0.077
46.000 -50.000 0.074
46.000 -49.000 0.070
46.000 -48.000 0.066
46.000 -47.000 0.063
46.000 -46.000 0.059
46.000 -45.000 0.056
46.000 -44.000 0.053
46.000 -43.000 0.051
46.000 -42.000 0.048
46.000 -41.000 0.047
46.000 -40.000 0.046
46.000 -39.000 0.045
46.000 -38.000 0.044
46.000 -37.000 0.043
46.000 -36.000 0.044
46.000 -35.000 0.045
46.000 -34.000 0.046
46.000 -33.000 0.049
46.000 -32.000 0.053
46.000 -31.000 0.058
46.000 -30.000 0.064
46.000 -29.000 0.071
46.000 -28.000 0.078
46.000 -27.000 0.085
46.000 -26.000 0.093
46.000 -25.000 0.100
46.000 -24.000 0.107
46.000 -23.000 0.115
46.000 -22.000 0.124
46.000 -21.000 0.132
46.000 -20.000 0.137
46.000 -19.000 0.142
46.000 -18.000 0.146
46.000 -17.000 0.150
46.000 -16.000 0.154
46.000 -15.000 0.157
46.000 -14.000 0.159
46.000 -13.000 0.160
46.000 -12.000 0.162
46.000 -11.000 0.162
46.000 -10.000 0.162
46.000 -9.000 0.161
46.000 -8.000 0.159
46.000 -7.000 0.155
46.000 -6.000 0.147
46.000 -5.000 0.135
46.000 -4.000 0.125
46.000 -3.000 0.113
46.000 -2.000 0.101
46.000 -1.000 0.093
46.000 0.000 0.086
46.000 1.000 0.079
46.000 2.000 0.072
46.000 3.000 0.067
46.000 4.000 0.063
46.000 5.000 0.062
46.000 6.000 0.060
46.000 7.000 0.058
46.000 8.000 0.057
46.000 9.000 0.057
46.000 10.000 0.056
46.000 11.000 0.055
46.000 12.000 0.057
46.000 13.000 0.061
46.000 14.000 0.066
46.000 15.000 0.067
46.000 16.000 0.066
46.000 17.000 0.065
46.000 18.000 0.062
46.000 19.000 0.058
46.000 20.000 0.054
46.000 21.000 0.049
46.000 22.000 0.046
46.000 23.000 0.041
46.000 24.000 0.036
46.000 25.000 0.031
46.000 26.000 0.027
46.000 27.000 0.023
46.000 28.000 0.019
46.000 29.000 0.016
46.000 30.000 0.012
46.000 31.000 0.008
46.000 32.000 0.005
46.000 33.000 0.001
46.000 34.000 -0.003
46.000 35.000 -0.007
46.000 36.000 -0.011
46.000 37.000 -0.015
46.000 38.000 -0.019
46.000 39.000 -0.023
46.000 40.000 -0.028
46.000 41.000 -0.032
46.000 42.000 -0.036
46.000 43.000 -0.041
46.000 44.000 -0.045
46.000 45.000 -0.049
46.000 46.000 -0.053
46.000 47.000 -0.057
46.000 48.000 -0.062
46.000 49.000 -0.066
46.000 50.000 -0.070
46.000 51.000 -0.074
46.000 52.000 -0.078
46.000 53.000 -0.082
46.000 54.000 -0.086
46.000 55.000 -0.090
46.000 56.000 -0.094
46.000 57.000 -0.098
46.000 58.000 -0.101
46.000 59.000 -0.105
46.000 60.000 -0.109
47.000 -60.000 0.118
47.000 -59.000 0.113
47.000 -58.000 0.109
47.000 -57.000 0.105
47.000 -56.000 0.100
47.000 -55.000 0.096
47.000 -54.000 0.091
47.000 -53.000 0.087
47.000 -52.000 0.083
47.000 -51.000 0.079
47.000 -50.000 0.075
47.000 -49.000 0.071
47.000 -48.000 0.067
47.000 -47.000 0.063
47.000 -46.000 0.060
47.000 -45.000 0.056
47.000 -44.000 0.053
47.000 -43.000 0.050
47.000 -42.000 0.047
47.000 -41.000 0.046
47.000 -40.000 0.044
47.000 -39.000 0.042
47.000 -38.000 0.041
47.000 -37.000 0.040
47.000 -36.000 0.040
47.000 -35.000 0.041
47.000 -34.000 0.043
47.000 -33.000 0.045
47.000 -32.000 0.048
47.000 -31.000 0.053
47.000 -30.000 0.059
47.000 -29.000 0.065
47.000 -28.000 0.072
47.000 -27.000 0.079
47.000 -26.000 0.086
47.000 -25.000 0.093
47.000 -24.000 0.100
47.000 -23.000 0.108
47.000 -22.000 0.116
47.000 -21.000 0.122
47.000 -20.000 0.127
47.000 -19.000 0.131
47.000 -18.000 0.136
47.000 -17.000 0.140
47.000 -16.000 0.144
47.000 -15.000 0.148
47.000 -14.000 0.150
47.000 -13.000 0.152
47.000 -12.000 0.153
47.000 -11.000 0.154
47.000 -10.000 0.155
47.000 -9.000 0.154
47.000 -8.000 0.152
47.000 -7.000 0.149
47.000 -6.000 0.144
47.000 -5.000 0.134
47.000 -4.000 0.124
47.000 -3.000 0.113
47.000 -2.000 0.105
47.000 -1.000 0.097
47.000 0.000 0.089
47.000 1.000 0.082
47.000 2.000 0.075
47.000 3.000 0.069
47.000 4.000 0.065
47.000 5.000 0.063
47.000 6.000 0.062
47.000 7.000 0.061
47.000 8.000 0.061
47.000 9.000 0.062
47.000 10.000 0.063
47.000 11.000 0.063
47.000 12.000 0.064
47.000 13.000 0.066
47.000 14.000 0.070
47.000 15.000 0.071
47.000 16.000 0.071
47.000 17.000 0.069
47.000 18.000 0.067
47.000 19.000 0.063
47.000 20.000 0.059
47.000 21.000 0.054
47.000 22.000 0.049
47.000 23.000 0.045
47.000 24.000 0.040
47.000 25.000 0.035
47.000 26.000 0.031
47.000 27.000 0.027
47.000 28.000 0.023
47.000 29.000 0.019
47.000 30.000 0.015
47.000 31.000 0.012
47.000 32.000 0.008
47.000 33.000 0.004
47.000 34.000 0.001
47.000 35.000 -0.003
47.000 36.000 -0.007
47.000 37.000 -0.012
47.000 38.000 -0.016
47.000 39.000 -0.020
47.000 40.000 -0.025
47.000 41.000 -0.029
47.000 42.000 -0.033
47.000 43.000 -0.037
47.000 44.000 -0.042
47.000 45.000 -0.046
47.000 46.000 -0.050
47.000 47.000 -0.054
47.000 48.000 -0.058
47.000 49.000 -0.063
47.000 50.000 -0.067
47.000 51.000 -0.071
47.000 52.000 -0.075
47.000 53.000 -0.079
47.000 54.000 -0.083
47.000 55.000 -0.087
47.000 56.000 -0.091
47.000 57.000 -0.095
47.000 58.000 -0.099
47.000 59.000 -0.102
47.000 60.000 -0.106
48.000 -60.000 0.120
48.000 -59.000 0.115
48.000 -58.000 0.111
48.000 -57.000 0.107
48.000 -56.000 0.102
48.000 -55.000 0.098
48.000 -54.000 0.093
48.000 -53.000 0.089
48.000 -52.000 0.084
48.000 -51.000 0.080
48.000 -50.000 0.076
48.000 -49.000 0.071
48.000 -48.000 0.067
48.000 -47.000 0.064
48.000 -46.000 0.060
48.000 -45.000 0.056
48.000 -44.000 0.053
48.000 -43.000 0.049
48.000 -42.000 0.046
48.000 -41.000 0.044
48.000 -40.000 0.042
48.000 -39.000 0.040
48.000 -38.000 0.038
48.000 -37.000 0.037
48.000 -36.000 0.037
48.000 -35.000 0.037
48.000 -34.000 0.039
48.000 -33.000 0.041
48.000 -32.000 0.044
48.000 -31.000 0.049
48.000 -30.000 0.054
48.000 -29.000 0.060
48.000 -28.000 0.066
48.000 -27.000 0.073
48.000 -26.000 0.079
48.000 -25.000 0.086
48.000 -24.000 0.093
48.000 -23.000 0.100
48.000 -22.000 0.107
48.000 -21.000 0.112
48.000 -20.000 0.117
48.000 -19.000 0.121
48.000 -18.000 0.126
48.000 -17.000 0.130
48.000 -16.000 0.134
48.000 -15.000 0.137
48.000 -14.000 0.140
48.000 -13.000 0.142
48.000 -12.000 0.144
48.000 -11.000 0.146
48.000 -10.000 0.147
48.000 -9.000 0.147
48.000 -8.000 0.146
48.000 -7.000 0.143
48.000 -6.000 0.139
48.000 -5.000 0.131
48.000 -4.000 0.123
48.000 -3.000 0.114
48.000 -2.000 0.107
48.000 -1.000 0.098
48.000 0.000 0.090
48.000 1.000 0.082
48.000 2.000 0.075
48.000 3.000 0.069
48.000 4.000 0.065
48.000 5.000 0.063
48.000 6.000 0.062
48.000 7.000 0.062
48.000 8.000 0.063
48.000 9.000 0.065
48.000 10.000 0.067
48.000 11.000 0.069
48.000 12.000 0.070
48.000 13.000 0.072
48.000 14.000 0.075
48.000 15.000 0.076
48.000 16.000 0.076
48.000 17.000 0.074
48.000 18.000 0.071
48.000 19.000 0.067
48.000 20.000 0.063
48.000 21.000 0.058
48.000 22.000 0.053
48.000 23.000 0.048
48.000 24.000 0.043
48.000 25.000 0.039
48.000 26.000 0.034
48.000 27.000 0.030
48.000 28.000 0.026
48.000 29.000 0.023
48.000 30.000 0.019
48.000 31.000 0.015
48.000 32.000 0.011
48.000 33.000 0.008
48.000 34.000 0.004
48.000 35.000 -0.000
48.000 36.000 -0.004
48.000 37.000 -0.008
48.000 38.000 -0.013
48.000 39.000 -0.017
48.000 40.000 -0.021
48.000 41.000 -0.026
48.000 42.000 -0.030
48.000 43.000 -0.034
48.000 44.000 -0.039
48.000 45.000 -0.043
48.000 46.000 -0.047
48.000 47.000 -0.051
48.000 48.000 -0.055
48.000 49.000 -0.060
48.000 50.000 -0.064
48.000 51.000 -0.068
48.000 52.000 -0.072
48.000 53.000 -0.076
48.000 54.000 -0.080
48.000 55.000 -0.084
48.000 56.000 -0.088
48.000 57.000 -0.092
48.000 58.000 -0.096
48.000 59.000 -0.100
48.000 60.000 -0.104
49.000 -60.000 0.121
49.000 -59.000 0.117
49.000 -58.000 0.113
49.000 -57.000 0.108
49.000 -56.000 0.104
49.000 -55.000 0.099
49.000 -54.000 0.095
49.000 -53.000 0.090
49.000 -52.000 0.086
49.000 -51.000 0.081
49.000 -50.000 0.077
49.000 -49.000 0.072
49.000 -48.000 0.068
49.000 -47.000 0.064
49.000 -46.000 0.060
49.000 -45.000 0.056
49.000 -44.000 0.052
49.000 -43.000 0.049
49.000 -42.000 0.046
49.000 -41.000 0.043
49.000 -40.000 0.040
49.000 -39.000 0.038
49.000 -38.000 0.036
49.000 -37.000 0.034
49.000 -36.000 0.034
49.000 -35.000 0.034
49.000 -34.000 0.035
49.000 -33.000 0.037
49.000 -32.000 0.040
49.000 -31.000 0.044
49.000 -30.000 0.048
49.000 -29.000 0.054
49.000 -28.000 0.060
49.000 -27.000 0.066
49.000 -26.000 0.072
49.000 -25.000 0.079
49.000 -24.000 0.085
49.000 -23.000 0.092
49.000 -22.000 0.097
49.000 -21.000 0.102
49.000 -20.000 0.107
49.000 -19.000 0.111
49.000 -18.000 0.116
49.000 -17.000 0.119
49.000 -16.000 0.123
49.000 -15.000 0.127
49.000 -14.000 0.130
49.000 -13.000 0.133
49.000 -12.000 0.135
49.000 -11.000 0.137
49.000 -10.000 0.139
49.000 -9.000 0.139
49.000 -8.000 0.138
49.000 -7.000 0.137
49.000 -6.000 0.133
49.000 -5.000 0.128
49.000 -4.000 0.120
49.000 -3.000 0.113
49.000 -2.000 0.105
49.000 -1.000 0.097
49.000 0.000 0.088
49.000 1.000 0.080
49.000 2.000 0.072
49.000 3.000 0.067
49.000 4.000 0.062
49.000 5.000 0.061
49.000 6.000 0.060
49.000 7.000 0.061
49.000 8.000 0.063
49.000 9.000 0.066
49.000 10.000 0.069
49.000 11.000 0.072
49.000 12.000 0.075
49.000 13.000 0.077
49.000 14.000 0.079
49.000 15.000 0.080
49.000 16.000 0.080
49.000 17.000 0.078
49.000 18.000 0.075
49.000 19.000 0.071
49.000 20.000 0.067
49.000 21.000 0.062
49.000 22.000 0.057
49.000 23.000 0.052
49.000 24.000 0.047
49.000 25.000 0.042
49.000 26.000 0.038
49.000 27.000 0.034
49.000 28.000 0.030
49.000 29.000 0.026
49.000 30.000 0.022
49.000 31.000 0.019
49.000 32.000 0.015
49.000 33.000 0.011
49.000 34.000 0.007
49.000 35.000 0.003
49.000 36.000 -0.001
49.000 37.000 -0.005
49.000 38.000 -0.009
49.000 39.000 -0.014
49.000 40.000 -0.018
49.000 41.000 -0.022
49.000 42.000 -0.027
49.000 43.000 -0.031
49.000 44.000 -0.035
49.000 45.000 -0.040
49.000 46.000 -0.044
49.000 47.000 -0.048
49.000 48.000 -0.052
49.000 49.000 -0.057
49.000 50.000 -0.061
49.000 51.000 -0.065
49.000 52.000 -0.069
49.000 53.000 -0.073
49.000 54.000 -0.077
49.000 55.000 -0.081
49.000 56.000 -0.085
49.000 57.000 -0.089
49.000 58.000 -0.093
49.000 59.000 -0.097
49.000 60.000 -0.101
50.000 -60.000 0.123
50.000 -59.000 0.119
50.000 -58.000 0.115
50.000 -57.000 0.110
50.000 -56.000 0.106
50.000 -55.000 0.101
50.000 -54.000 0.096
50.000 -53.000 0.092
50.000 -52.000 0.087
50.000 -51.000 0.082
50.000 -50.000 0.078
50.000 -49.000 0.073
50.000 -48.000 0.069
50.000 -47.000 0.064
50.000 -46.000 0.060
50.000 -45.000 0.056
50.000 -44.000 0.052
50.000 -43.000 0.048
50.000 -42.000 0.045
50.000 -41.000 0.041
50.000 -40.000 0.038
50.000 -39.000 0.036
50.000 -38.000 0.033
50.000 -37.000 0.032
50.000 -36.000 0.031
50.000 -35.000 0.030
50.000 -34.000 0.031
50.000 -33.000 0.032
50.000 -32.000 0.035
50.000 -31.000 0.038
50.000 -30.000 0.043
50.000 -29.000 0.048
50.000 -28.000 0.053
50.000 -27.000 0.059
50.000 -26.000 0.065
50.000 -25.000 0.071
50.000 -24.000 0.077
50.000 -23.000 0.083
50.000 -22.000 0.088
50.000 -21.000 0.093
50.000 -20.000 0.097
50.000 -19.000 0.102
50.000 -18.000 0.106
50.000 -17.000 0.109
50.000 -16.000 0.113
50.000 -15.000 0.116
50.000 -14.000 0.120
50.000 -13.000 0.123
50.000 -12.000 0.126
50.000 -11.000 0.128
50.000 -10.000 0.130
50.000 -9.000 0.131
50.000 -8.000 0.131
50.000 -7.000 0.130
50.000 -6.000 0.127
50.000 -5.000 0.123
50.000 -4.000 0.116
50.000 -3.000 0.109
50.000 -2.000 0.100
50.000 -1.000 0.091
50.000 0.000 0.082
50.000 1.000 0.074
50.000 2.000 0.067
50.000 3.000 0.061
50.000 4.000 0.057
50.000 5.000 0.055
50.000 6.000 0.056
50.000 7.000 0.058
50.000 8.000 0.061
50.000 9.000 0.065
50.000 10.000 0.069
50.000 11.000 0.073
50.000 12.000 0.077
50.000 13.000 0.081
50.000 14.000 0.083
50.000 15.000 0.084
50.000 16.000 0.084
50.000 17.000 0.082
50.000 18.000 0.079
50.000 19.000 0.075
50.000 20.000 0.071
50.000 21.000 0.066
50.000 22.000 0.061
50.000 23.000 0.055
50.000 24.000 0.050
50.000 25.000 0.046
50.000 26.000 0.041
50.000 27.000 0.037
50.000 28.000 0.033
50.000 29.000 0.029
50.000 30.000 0.026
50.000 31.000 0.022
50.000 32.000 0.018
50.000 33.000 0.014
50.000 34.000 0.011
50.000 35.000 0.007
50.000 36.000 0.002
50.000 37.000 -0.002
50.000 38.000 -0.006
50.000 39.000 -0.010
50.000 40.000 -0.015
50.000 41.000 -0.019
50.000 42.000 -0.024
50.000 43.000 -0.028
50.000 44.000 -0.032
50.000 45.000 -0.037
50.000 46.000 -0.041
50.000 47.000 -0.045
50.000 48.000 -0.049
50.000 49.000 -0.054
50.000 50.000 -0.058
50.000 51.000 -0.062
50.000 52.000 -0.066
50.000 53.000 -0.070
50.000 54.000 -0.074
50.000 55.000 -0.079
50.000 56.000 -0.083
50.000 57.000 -0.087
50.000 58.000 -0.091
50.000 59.000 -0.095
50.000 60.000 -0.099
51.000 -60.000 0.125
51.000 -59.000 0.121
51.000 -58.000 0.116
51.000 -57.000 0.112
51.000 -56.000 0.107
51.000 -55.000 0.103
51.000 -54.000 0.098
51.000 -53.000 0.093
51.000 -52.000 0.089
51.000 -51.000 0.084
51.000 -50.000 0.079
51.000 -49.000 0.074
51.000 -48.000 0.069
51.000 -47.000 0.065
51.000 -46.000 0.060
51.000 -45.000 0.056
51.000 -44.000 0.052
51.000 -43.000 0.048
51.000 -42.000 0.044
51.000 -41.000 0.040
51.000 -40.000 0.037
51.000 -39.000 0.034
51.000 -38.000 0.031
51.000 -37.000 0.029
51.000 -36.000 0.028
51.000 -35.000 0.027
51.000 -34.000 0.027
51.000 -33.000 0.028
51.000 -32.000 0.030
51.000 -31.000 0.033
51.000 -30.000 0.037
51.000 -29.000 0.041
51.000 -28.000 0.046
51.000 -27.000 0.051
51.000 -26.000 0.057
51.000 -25.000 0.063
51.000 -24.000 0.068
51.000 -23.000 0.074
51.000 -22.000 0.079
51.000 -21.000 0.084
51.000 -20.000 0.088
51.000 -19.000 0.092
51.000 -18.000 0.096
51.000 -17.000 0.099
51.000 -16.000 0.102
51.000 -15.000 0.106
51.000 -14.000 0.109
51.000 -13.000 0.112
51.000 -12.000 0.116
51.000 -11.000 0.119
51.000 -10.000 0.121
51.000 -9.000 0.123
51.000 -8.000 0.123
51.000 -7.000 0.122
51.000 -6.000 0.120
51.000 -5.000 0.116
51.000 -4.000 0.109
51.000 -3.000 0.101
51.000 -2.000 0.092
51.000 -1.000 0.083
51.000 0.000 0.074
51.000 1.000 0.065
51.000 2.000 0.058
51.000 3.000 0.052
51.000 4.000 0.049
51.000 5.000 0.048
51.000 6.000 0.050
51.000 7.000 0.053
51.000 8.000 0.057
51.000 9.000 0.061
51.000 10.000 0.067
51.000 11.000 0.072
51.000 12.000 0.078
51.000 13.000 0.083
51.000 14.000 0.087
51.000 15.000 0.088
51.000 16.000 0.088
51.000 17.000 0.086
51.000 18.000 0.083
51.000 19.000 0.079
51.000 20.000 0.074
51.000 21.000 0.069
51.000 22.000 0.064
51.000 23.000 0.059
51.000 24.000 0.054
51.000 25.000 0.049
51.000 26.000 0.045
51.000 27.000 0.041
51.000 28.000 0.037
51.000 29.000 0.033
51.000 30.000 0.029
51.000 31.000 0.025
51.000 32.000 0.022
51.000 33.000 0.018
51.000 34.000 0.014
51.000 35.000 0.010
51.000 36.000 0.006
51.000 37.000 0.001
51.000 38.000 -0.003
51.000 39.000 -0.007
51.000 40.000 -0.012
51.000 41.000 -0.016
51.000 42.000 -0.020
51.000 43.000 -0.025
51.000 44.000 -0.029
51.000 45.000 -0.034
51.000 46.000 -0.038
51.000 47.000 -0.042
51.000 48.000 -0.046
51.000 49.000 -0.051
51.000 50.000 -0.055
51.000 51.000 -0.059
51.000 52.000 -0.063
51.000 53.000 -0.067
51.000 54.000 -0.072
51.000 55.000 -0.076
51.000 56.000 -0.080
51.000 57.000 -0.084
51.000 58.000 -0.088
51.000 59.000 -0.092
51.000 60.000 -0.096
52.000 -60.000 0.127
52.000 -59.000 0.123
52.000 -58.000 0.118
52.000 -57.000 0.114
52.000 -56.000 0.109
52.000 -55.000 0.104
52.000 -54.000 0.100
52.000 -53.000 0.095
52.000 -52.000 0.090
52.000 -51.000 0.085
52.000 -50.000 0.080
52.000 -49.000 0.075
52.000 -48.000 0.070
52.000 -47.000 0.065
52.000 -46.000 0.061
52.000 -45.000 0.056
52.000 -44.000 0.052
52.000 -43.000 0.047
52.000 -42.000 0.043
52.000 -41.000 0.039
52.000 -40.000 0.036
52.000 -39.000 0.032
52.000 -38.000 0.029
52.000 -37.000 0.027
52.000 -36.000 0.025
52.000 -35.000 0.024
52.000 -34.000 0.024
52.000 -33.000 0.024
52.000 -32.000 0.025
52.000 -31.000 0.027
52.000 -30.000 0.030
52.000 -29.000 0.034
52.000 -28.000 0.039
52.000 -27.000 0.044
52.000 -26.000 0.049
52.000 -25.000 0.054
52.000 -24.000 0.060
52.000 -23.000 0.065
52.000 -22.000 0.069
52.000 -21.000 0.074
52.000 -20.000 0.078
52.000 -19.000 0.082
52.000 -18.000 0.085
52.000 -17.000 0.089
52.000 -16.000 0.092
52.000 -15.000 0.095
52.000 -14.000 0.097
52.000 -13.000 0.101
52.000 -12.000 0.105
52.000 -11.000 0.109
52.000 -10.000 0.111
52.000 -9.000 0.113
52.000 -8.000 0.114
52.000 -7.000 0.114
52.000 -6.000 0.112
52.000 -5.000 0.108
52.000 -4.000 0.099
52.000 -3.000 0.090
52.000 -2.000 0.081
52.000 -1.000 0.072
52.000 0.000 0.062
52.000 1.000 0.054
52.000 2.000 0.047
52.000 3.000 0.041
52.000 4.000 0.040
52.000 5.000 0.039
52.000 6.000 0.043
52.000 7.000 0.047
52.000 8.000 0.052
52.000 9.000 0.058
52.000 10.000 0.064
52.000 11.000 0.071
52.000 12.000 0.078
52.000 13.000 0.084
52.000 14.000 0.089
52.000 15.000 0.091
52.000 16.000 0.091
52.000 17.000 0.089
52.000 18.000 0.086
52.000 19.000 0.082
52.000 20.000 0.077
52.000 21.000 0.072
52.000 22.000 0.067
52.000 23.000 0.062
52.000 24.000 0.057
52.000 25.000 0.052
52.000 26.000 0.048
52.000 27.000 0.044
52.000 28.000 0.040
52.000 29.000 0.036
52.000 30.000 0.032
52.000 31.000 0.029
52.000 32.000 0.025
52.000 33.000 0.021
52.000 34.000 0.017
52.000 35.000 0.013
52.000 36.000 0.009
52.000 37.000 0.005
52.000 38.000 0.000
52.000 39.000 -0.004
52.000 40.000 -0.008
52.000 41.000 -0.013
52.000 42.000 -0.017
52.000 43.000 -0.022
52.000 44.000 -0.026
52.000 45.000 -0.030
52.000 46.000 -0.035
52.000 47.000 -0.039
52.000 48.000 -0.043
52.000 49.000 -0.048
52.000 50.000 -0.052
52.000 51.000 -0.056
52.000 52.000 -0.060
52.000 53.000 -0.065
52.000 54.000 -0.069
52.000 55.000 -0.073
52.000 56.000 -0.077
52.000 57.000 -0.081
52.000 58.000 -0.086
52.000 59.000 -0.090
52.000 60.000 -0.094
53.000 -60.000 0.129
53.000 -59.000 0.125
53.000 -58.000 0.120
53.000 -57.000 0.116
53.000 -56.000 0.111
53.000 -55.000 0.106
53.000 -54.000 0.102
53.000 -53.000 0.097
53.000 -52.000 0.092
53.000 -51.000 0.087
53.000 -50.000 0.081
53.000 -49.000 0.076
53.000 -48.000 0.071
53.000 -47.000 0.066
53.000 -46.000 0.061
53.000 -45.000 0.056
53.000 -44.000 0.052
53.000 -43.000 0.047
53.000 -42.000 0.043
53.000 -41.000 0.039
53.000 -40.000 0.035
53.000 -39.000 0.031
53.000 -38.000 0.027
53.000 -37.000 0.024
53.000 -36.000 0.022
53.000 -35.000 0.021
53.000 -34.000 0.020
53.000 -33.000 0.020
53.000 -32.000 0.021
53.000 -31.000 0.021
53.000 -30.000 0.024
53.000 -29.000 0.027
53.000 -28.000 0.031
53.000 -27.000 0.036
53.000 -26.000 0.041
53.000 -25.000 0.046
53.000 -24.000 0.051
53.000 -23.000 0.056
53.000 -22.000 0.060
53.000 -21.000 0.064
53.000 -20.000 0.068
53.000 -19.000 0.071
53.000 -18.000 0.075
53.000 -17.000 0.078
53.000 -16.000 0.081
53.000 -15.000 0.083
53.000 -14.000 0.086
53.000 -13.000 0.090
53.000 -12.000 0.094
53.000 -11.000 0.098
53.000 -10.000 0.101
53.000 -9.000 0.103
53.000 -8.000 0.104
53.000 -7.000 0.104
53.000 -6.000 0.104
53.000 -5.000 0.098
53.000 -4.000 0.087
53.000 -3.000 0.077
53.000 -2.000 0.068
53.000 -1.000 0.058
53.000 0.000 0.049
53.000 1.000 0.040
53.000 2.000 0.033
53.000 3.000 0.030
53.000 4.000 0.029
53.000 5.000 0.028
53.000 6.000 0.037
53.000 7.000 0.040
53.000 8.000 0.046
53.000 9.000 0.053
53.000 10.000 0.061
53.000 11.000 0.069
53.000 12.000 0.077
53.000 13.000 0.084
53.000 14.000 0.090
53.000 15.000 0.093
53.000 16.000 0.093
53.000 17.000 0.091
53.000 18.000 0.088
53.000 19.000 0.084
53.000 20.000 0.080
53.000 21.000 0.075
53.000 22.000 0.070
53.000 23.000 0.065
53.000 24.000 0.060
53.000 25.000 0.056
53.000 26.000 0.051
53.000 27.000 0.047
53.000 28.000 0.043
53.000 29.000 0.039
53.000 30.000 0.036
53.000 31.000 0.032
53.000 32.000 0.028
53.000 33.000 0.024
53.000 34.000 0.020
53.000 35.000 0.016
53.000 36.000 0.012
53.000 37.000 0.008
53.000 38.000 0.004
53.000 39.000 -0.001
53.000 40.000 -0.005
53.000 41.000 -0.010
53.000 42.000 -0.014
53.000 43.000 -0.019
53.000 44.000 -0.023
53.000 45.000 -0.027
53.000 46.000 -0.032
53.000 47.000 -0.036
53.000 48.000 -0.040
53.000 49.000 -0.045
53.000 50.000 -0.049
53.000 51.000 -0.053
53.000 52.000 -0.057
53.000 53.000 -0.062
53.000 54.000 -0.066
53.000 55.000 -0.070
53.000 56.000 -0.075
53.000 57.000 -0.079
53.000 58.000 -0.083
53.000 59.000 -0.087
53.000 60.000 -0.091
54.000 -60.000 0.131
54.000 -59.000 0.127
54.000 -58.000 0.122
54.000 -57.000 0.118
54.000 -56.000 0.113
54.000 -55.000 0.108
54.000 -54.000 0.103
54.000 -53.000 0.098
54.000 -52.000 0.093
54.000 -51.000 0.088
54.000 -50.000 0.083
54.000 -49.000 0.077
54.000 -48.000 0.072
54.000 -47.000 0.067
54.000 -46.000 0.062
54.000 -45.000 0.057
54.000 -44.000 0.052
54.000 -43.000 0.047
54.000 -42.000 0.043
54.000 -41.000 0.038
54.000 -40.000 0.034
54.000 -39.000 0.030
54.000 -38.000 0.026
54.000 -37.000 0.023
54.000 -36.000 0.020
54.000 -35.000 0.018
54.000 -34.000 0.017
54.000 -33.000 0.017
54.000 -32.000 0.017
54.000 -31.000 0.016
54.000 -30.000 0.018
54.000 -29.000 0.020
54.000 -28.000 0.024
54.000 -27.000 0.028
54.000 -26.000 0.032
54.000 -25.000 0.037
54.000 -24.000 0.042
54.000 -23.000 0.047
54.000 -22.000 0.051
54.000 -21.000 0.054
54.000 -20.000 0.057
54.000 -19.000 0.061
54.000 -18.000 0.064
54.000 -17.000 0.067
54.000 -16.000 0.069
54.000 -15.000 0.072
54.000 -14.000 0.074
54.000 -13.000 0.078
54.000 -12.000 0.082
54.000 -11.000 0.086
54.000 -10.000 0.089
54.000 -9.000 0.092
54.000 -8.000 0.094
54.000 -7.000 0.095
54.000 -6.000 0.094
54.000 -5.000 0.087
54.000 -4.000 0.074
54.000 -3.000 0.063
54.000 -2.000 0.053
54.000 -1.000 0.043
54.000 0.000 0.034
54.000 1.000 0.025
54.000 2.000 0.020
54.000 3.000 0.020
54.000 4.000 0.016
54.000 5.000 0.016
54.000 6.000 0.028
54.000 7.000 0.034
54.000 8.000 0.040
54.000 9.000 0.048
54.000 10.000 0.057
54.000 11.000 0.066
54.000 12.000 0.075
54.000 13.000 0.084
54.000 14.000 0.091
54.000 15.000 0.095
54.000 16.000 0.095
54.000 17.000 0.093
54.000 18.000 0.090
54.000 19.000 0.086
54.000 20.000 0.082
54.000 21.000 0.077
54.000 22.000 0.073
54.000 23.000 0.068
54.000 24.000 0.063
54.000 25.000 0.059
54.000 26.000 0.054
54.000 27.000 0.050
54.000 28.000 0.046
54.000 29.000 0.043
54.000 30.000 0.039
54.000 31.000 0.035
54.000 32.000 0.031
54.000 33.000 0.028
54.000 34.000 0.024
54.000 35.000 0.020
54.000 36.000 0.015
54.000 37.000 0.011
54.000 38.000 0.007
54.000 39.000 0.002
54.000 40.000 -0.002
54.000 41.000 -0.007
54.000 42.000 -0.011
54.000 43.000 -0.015
54.000 44.000 -0.020
54.000 45.000 -0.024
54.000 46.000 -0.029
54.000 47.000 -0.033
54.000 48.000 -0.037
54.000 49.000 -0.042
54.000 50.000 -0.046
54.000 51.000 -0.050
54.000 52.000 -0.055
54.000 53.000 -0.059
54.000 54.000 -0.063
54.000 55.000 -0.067
54.000 56.000 -0.072
54.000 57.000 -0.076
54.000 58.000 -0.080
54.000 59.000 -0.085
54.000 60.000 -0.089
55.000 -60.000 0.133
55.000 -59.000 0.129
55.000 -58.000 0.124
55.000 -57.000 0.119
55.000 -56.000 0.115
55.000 -55.000 0.110
55.000 -54.000 0.105
55.000 -53.000 0.100
55.000 -52.000 0.095
55.000 -51.000 0.090
55.000 -50.000 0.084
55.000 -49.000 0.078
55.000 -48.000 0.073
55.000 -47.000 0.067
55.000 -46.000 0.062
55.000 -45.000 0.057
55.000 -44.000 0.052
55.000 -43.000 0.047
55.000 -42.000 0.042
55.000 -41.000 0.038
55.000 -40.000 0.033
55.000 -39.000 0.029
55.000 -38.000 0.025
55.000 -37.000 0.021
55.000 -36.000 0.018
55.000 -35.000 0.016
55.000 -34.000 0.014
55.000 -33.000 0.013
55.000 -32.000 0.013
55.000 -31.000 0.012
55.000 -30.000 0.012
55.000 -29.000 0.014
55.000 -28.000 0.016
55.000 -27.000 0.020
55.000 -26.000 0.024
55.000 -25.000 0.028
55.000 -24.000 0.033
55.000 -23.000 0.038
55.000 -22.000 0.042
55.000 -21.000 0.044
55.000 -20.000 0.047
55.000 -19.000 0.050
55.000 -18.000 0.053
55.000 -17.000 0.056
55.000 -16.000 0.058
55.000 -15.000 0.060
55.000 -14.000 0.062
55.000 -13.000 0.066
55.000 -12.000 0.070
55.000 -11.000 0.074
55.000 -10.000 0.078
55.000 -9.000 0.080
55.000 -8.000 0.083
55.000 -7.000 0.085
55.000 -6.000 0.083
55.000 -5.000 0.073
55.000 -4.000 0.059
55.000 -3.000 0.047
55.000 -2.000 0.037
55.000 -1.000 0.027
55.000 0.000 0.017
55.000 1.000 0.010
55.000 2.000 0.007
55.000 3.000 0.008
55.000 4.000 0.002
55.000 5.000 0.002
55.000 6.000 0.015
55.000 7.000 0.028
55.000 8.000 0.034
55.000 9.000 0.042
55.000 10.000 0.052
55.000 11.000 0.062
55.000 12.000 0.073
55.000 13.000 0.082
55.000 14.000 0.090
55.000 15.000 0.095
55.000 16.000 0.096
55.000 17.000 0.094
55.000 18.000 0.091
55.000 19.000 0.087
55.000 20.000 0.083
55.000 21.000 0.080
55.000 22.000 0.076
55.000 23.000 0.071
55.000 24.000 0.066
55.000 25.000 0.061
55.000 26.000 0.057
55.000 27.000 0.053
55.000 28.000 0.049
55.000 29.000 0.046
55.000 30.000 0.042
55.000 31.000 0.038
55.000 32.000 0.034
55.000 33.000 0.031
55.000 34.000 0.027
55.000 35.000 0.023
55.000 36.000 0.019
55.000 37.000 0.014
55.000 38.000 0.010
55.000 39.000 0.005
55.000 40.000 0.001
55.000 41.000 -0.004
55.000 42.000 -0.008
55.000 43.000 -0.012
55.000 44.000 -0.017
55.000 45.000 -0.021
55.000 46.000 -0.026
55.000 47.000 -0.030
55.000 48.000 -0.034
55.000 49.000 -0.039
55.000 50.000 -0.043
55.000 51.000 -0.047
55.000 52.000 -0.052
55.000 53.000 -0.056
55.000 54.000 -0.060
55.000 55.000 -0.065
55.000 56.000 -0.069
55.000 57.000 -0.073
55.000 58.000 -0.078
55.000 59.000 -0.082
55.000 60.000 -0.086
56.000 -60.000 0.135
56.000 -59.000 0.131
56.000 -58.000 0.126
56.000 -57.000 0.121
56.000 -56.000 0.117
56.000 -55.000 0.112
56.000 -54.000 0.107
56.000 -53.000 0.102
56.000 -52.000 0.096
56.000 -51.000 0.091
56.000 -50.000 0.085
56.000 -49.000 0.080
56.000 -48.000 0.074
56.000 -47.000 0.068
56.000 -46.000 0.063
56.000 -45.000 0.058
56.000 -44.000 0.052
56.000 -43.000 0.047
56.000 -42.000 0.042
56.000 -41.000 0.038
56.000 -40.000 0.033
56.000 -39.000 0.028
56.000 -38.000 0.023
56.000 -37.000 0.019
56.000 -36.000 0.016
56.000 -35.000 0.013
56.000 -34.000 0.011
56.000 -33.000 0.010
56.000 -32.000 0.009
56.000 -31.000 0.008
56.000 -30.000 0.007
56.000 -29.000 0.007
56.000 -28.000 0.009
56.000 -27.000 0.012
56.000 -26.000 0.016
56.000 -25.000 0.020
56.000 -24.000 0.024
56.000 -23.000 0.029
56.000 -22.000 0.033
56.000 -21.000 0.035
56.000 -20.000 0.037
56.000 -19.000 0.039
56.000 -18.000 0.042
56.000 -17.000 0.044
56.000 -16.000 0.047
56.000 -15.000 0.049
56.000 -14.000 0.051
56.000 -13.000 0.053
56.000 -12.000 0.057
56.000 -11.000 0.062
56.000 -10.000 0.065
56.000 -9.000 0.069
56.000 -8.000 0.072
56.000 -7.000 0.074
56.000 -6.000 0.070
56.000 -5.000 0.059
56.000 -4.000 0.044
56.000 -3.000 0.031
56.000 -2.000 0.020
56.000 -1.000 0.010
56.000 0.000 0.001
56.000 1.000 -0.005
56.000 2.000 -0.004
56.000 3.000 -0.006
56.000 4.000 -0.014
56.000 5.000 -0.013
56.000 6.000 0.001
56.000 7.000 0.020
56.000 8.000 0.028
56.000 9.000 0.036
56.000 10.000 0.046
56.000 11.000 0.058
56.000 12.000 0.070
56.000 13.000 0.081
56.000 14.000 0.090
56.000 15.000 0.095
56.000 16.000 0.096
56.000 17.000 0.095
56.000 18.000 0.092
56.000 19.000 0.089
56.000 20.000 0.085
56.000 21.000 0.083
56.000 22.000 0.079
56.000 23.000 0.073
56.000 24.000 0.068
56.000 25.000 0.064
56.000 26.000 0.060
56.000 27.000 0.056
56.000 28.000 0.052
56.000 29.000 0.049
56.000 30.000 0.045
56.000 31.000 0.041
56.000 32.000 0.037
56.000 33.000 0.034
56.000 34.000 0.030
56.000 35.000 0.026
56.000 36.000 0.022
56.000 37.000 0.017
56.000 38.000 0.013
56.000 39.000 0.009
56.000 40.000 0.004
56.000 41.000 -0.000
56.000 42.000 -0.005
56.000 43.000 -0.009
56.000 44.000 -0.014
56.000 45.000 -0.018
56.000 46.000 -0.023
56.000 47.000 -0.027
56.000 48.000 -0.031
56.000 49.000 -0.036
56.000 50.000 -0.040
56.000 51.000 -0.045
56.000 52.000 -0.049
56.000 53.000 -0.053
56.000 54.000 -0.058
56.000 55.000 -0.062
56.000 56.000 -0.066
56.000 57.000 -0.071
56.000 58.000 -0.075
56.000 59.000 -0.079
56.000 60.000 -0.084
57.000 -60.000 0.137
57.000 -59.000 0.133
57.000 -58.000 0.128
57.000 -57.000 0.123
57.000 -56.000 0.119
57.000 -55.000 0.114
57.000 -54.000 0.109
57.000 -53.000 0.104
57.000 -52.000 0.098
57.000 -51.000 0.093
57.000 -50.000 0.087
57.000 -49.000 0.081
57.000 -48.000 0.075
57.000 -47.000 0.069
57.000 -46.000 0.064
57.000 -45.000 0.058
57.000 -44.000 0.053
57.000 -43.000 0.047
57.000 -42.000 0.042
57.000 -41.000 0.037
57.000 -40.000 0.032
57.000 -39.000 0.027
57.000 -38.000 0.023
57.000 -37.000 0.018
57.000 -36.000 0.014
57.000 -35.000 0.011
57.000 -34.000 0.009
57.000 -33.000 0.007
57.000 -32.000 0.006
57.000 -31.000 0.004
57.000 -30.000 0.002
57.000 -29.000 0.001
57.000 -28.000 0.003
57.000 -27.000 0.005
57.000 -26.000 0.008
57.000 -25.000 0.011
57.000 -24.000 0.016
57.000 -23.000 0.020
57.000 -22.000 0.023
57.000 -21.000 0.026
57.000 -20.000 0.027
57.000 -19.000 0.028
57.000 -18.000 0.031
57.000 -17.000 0.033
57.000 -16.000 0.035
57.000 -15.000 0.037
57.000 -14.000 0.039
57.000 -13.000 0.041
57.000 -12.000 0.045
57.000 -11.000 0.049
57.000 -10.000 0.053
57.000 -9.000 0.057
57.000 -8.000 0.061
57.000 -7.000 0.062
57.000 -6.000 0.056
57.000 -5.000 0.044
57.000 -4.000 0.027
57.000 -3.000 0.014
57.000 -2.000 0.002
57.000 -1.000 -0.008
57.000 0.000 -0.016
57.000 1.000 -0.018
57.000 2.000 -0.016
57.000 3.000 -0.023
57.000 4.000 -0.030
57.000 5.000 -0.028
57.000 6.000 -0.014
57.000 7.000 0.008
57.000 8.000 0.022
57.000 9.000 0.030
57.000 10.000 0.041
57.000 11.000 0.053
57.000 12.000 0.066
57.000 13.000 0.078
57.000 14.000 0.088
57.000 15.000 0.094
57.000 16.000 0.096
57.000 17.000 0.095
57.000 18.000 0.092
57.000 19.000 0.089
57.000 20.000 0.087
57.000 21.000 0.086
57.000 22.000 0.081
57.000 23.000 0.075
57.000 24.000 0.071
57.000 25.000 0.067
57.000 26.000 0.063
57.000 27.000 0.059
57.000 28.000 0.055
57.000 29.000 0.051
57.000 30.000 0.048
57.000 31.000 0.044
57.000 32.000 0.041
57.000 33.000 0.037
57.000 34.000 0.033
57.000 35.000 0.029
57.000 36.000 0.025
57.000 37.000 0.021
57.000 38.000 0.016
57.000 39.000 0.012
57.000 40.000 0.007
57.000 41.000 0.003
57.000 42.000 -0.002
57.000 43.000 -0.006
57.000 44.000 -0.011
57.000 45.000 -0.015
57.000 46.000 -0.020
57.000 47.000 -0.024
57.000 48.000 -0.028
57.000 49.000 -0.033
57.000 50.000 -0.037
57.000 51.000 -0.042
57.000 52.000 -0.046
57.000 53.000 -0.050
57.000 54.000 -0.055
57.000 55.000 -0.059
57.000 56.000 -0.064
57.000 57.000 -0.068
57.000 58.000 -0.073
57.000 59.000 -0.077
57.000 60.000 -0.081
58.000 -60.000 0.139
58.000 -59.000 0.135
58.000 -58.000 0.130
58.000 -57.000 0.126
58.000 -56.000 0.121
58.000 -55.000 0.116
58.000 -54.000 0.111
58.000 -53.000 0.105
58.000 -52.000 0.100
58.000 -51.000 0.094
58.000 -50.000 0.088
58.000 -49.000 0.082
58.000 -48.000 0.076
58.000 -47.000 0.070
58.000 -46.000 0.065
58.000 -45.000 0.059
58.000 -44.000 0.053
58.000 -43.000 0.047
58.000 -42.000 0.042
58.000 -41.000 0.037
58.000 -40.000 0.032
58.000 -39.000 0.027
58.000 -38.000 0.022
58.000 -37.000 0.017
58.000 -36.000 0.013
58.000 -35.000 0.009
58.000 -34.000 0.006
58.000 -33.000 0.005
58.000 -32.000 0.003
58.000 -31.000 0.001
58.000 -30.000 -0.002
58.000 -29.000 -0.004
58.000 -28.000 -0.004
58.000 -27.000 -0.002
58.000 -26.000 0.000
58.000 -25.000 0.003
58.000 -24.000 0.007
58.000 -23.000 0.011
58.000 -22.000 0.014
58.000 -21.000 0.017
58.000 -20.000 0.018
58.000 -19.000 0.018
58.000 -18.000 0.020
58.000 -17.000 0.022
58.000 -16.000 0.024
58.000 -15.000 0.026
58.000 -14.000 0.027
58.000 -13.000 0.029
58.000 -12.000 0.033
58.000 -11.000 0.037
58.000 -10.000 0.041
58.000 -9.000 0.046
58.000 -8.000 0.050
58.000 -7.000 0.048
58.000 -6.000 0.040
58.000 -5.000 0.027
58.000 -4.000 0.010
58.000 -3.000 -0.004
58.000 -2.000 -0.015
58.000 -1.000 -0.025
58.000 0.000 -0.031
58.000 1.000 -0.030
58.000 2.000 -0.032
58.000 3.000 -0.041
58.000 4.000 -0.047
58.000 5.000 -0.045
58.000 6.000 -0.030
58.000 7.000 -0.006
58.000 8.000 0.014
58.000 9.000 0.024
58.000 10.000 0.035
58.000 11.000 0.048
58.000 12.000 0.062
58.000 13.000 0.075
58.000 14.000 0.086
58.000 15.000 0.093
58.000 16.000 0.095
58.000 17.000 0.095
58.000 18.000 0.092
58.000 19.000 0.091
58.000 20.000 0.090
58.000 21.000 0.088
58.000 22.000 0.083
58.000 23.000 0.077
58.000 24.000 0.073
58.000 25.000 0.069
58.000 26.000 0.065
58.000 27.000 0.061
58.000 28.000 0.058
58.000 29.000 0.054
58.000 30.000 0.050
58.000 31.000 0.047
58.000 32.000 0.044
58.000 33.000 0.040
58.000 34.000 0.036
58.000 35.000 0.032
58.000 36.000 0.028
58.000 37.000 0.023
58.000 38.000 0.019
58.000 39.000 0.015
58.000 40.000 0.010
58.000 41.000 0.006
58.000 42.000 0.001
58.000 43.000 -0.003
58.000 44.000 -0.008
58.000 45.000 -0.012
58.000 46.000 -0.017
58.000 47.000 -0.021
58.000 48.000 -0.025
58.000 49.000 -0.030
58.000 50.000 -0.034
58.000 51.000 -0.039
58.000 52.000 -0.043
58.000 53.000 -0.048
58.000 54.000 -0.052
58.000 55.000 -0.057
58.000 56.000 -0.061
58.000 57.000 -0.065
58.000 58.000 -0.070
58.000 59.000 -0.074
58.000 60.000 -0.079
59.000 -60.000 0.141
59.000 -59.000 0.137
59.000 -58.000 0.132
59.000 -57.000 0.128
59.000 -56.000 0.123
59.000 -55.000 0.118
59.000 -54.000 0.112
59.000 -53.000 0.107
59.000 -52.000 0.101
