-15.000 79.000 0.122
-15.000 80.000 0.131
-15.000 81.000 0.139
-15.000 82.000 0.147
-15.000 83.000 0.155
-15.000 84.000 0.163
-15.000 85.000 0.170
-15.000 86.000 0.177
-15.000 87.000 0.184
-15.000 88.000 0.191
-15.000 89.000 0.197
-15.000 90.000 0.204
-14.000 -90.000 -0.204
-14.000 -89.000 -0.209
-14.000 -88.000 -0.215
-14.000 -87.000 -0.220
-14.000 -86.000 -0.225
-14.000 -85.000 -0.229
-14.000 -84.000 -0.234
-14.000 -83.000 -0.238
-14.000 -82.000 -0.241
-14.000 -81.000 -0.245
-14.000 -80.000 -0.248
-14.000 -79.000 -0.250
-14.000 -78.000 -0.253
-14.000 -77.000 -0.254
-14.000 -76.000 -0.256
-14.000 -75.000 -0.257
-14.000 -74.000 -0.258
-14.000 -73.000 -0.258
-14.000 -72.000 -0.258
-14.000 -71.000 -0.258
-14.000 -70.000 -0.257
-14.000 -69.000 -0.255
-14.000 -68.000 -0.253
-14.000 -67.000 -0.251
-14.000 -66.000 -0.248
-14.000 -65.000 -0.244
-14.000 -64.000 -0.240
-14.000 -63.000 -0.236
-14.000 -62.000 -0.231
-14.000 -61.000 -0.226
-14.000 -60.000 -0.219
-14.000 -59.000 -0.213
-14.000 -58.000 -0.205
-14.000 -57.000 -0.196
-14.000 -56.000 -0.187
-14.000 -55.000 -0.177
-14.000 -54.000 -0.166
-14.000 -53.000 -0.155
-14.000 -52.000 -0.143
-14.000 -51.000 -0.130
-14.000 -50.000 -0.116
-14.000 -49.000 -0.101
-14.000 -48.000 -0.086
-14.000 -47.000 -0.070
-14.000 -46.000 -0.054
-14.000 -45.000 -0.038
-14.000 -44.000 -0.021
-14.000 -43.000 -0.004
-14.000 -42.000 0.013
-14.000 -41.000 0.030
-14.000 -40.000 0.045
-14.000 -39.000 0.060
-14.000 -38.000 0.074
-14.000 -37.000 0.086
-14.000 -36.000 0.098
-14.000 -35.000 0.108
-14.000 -34.000 0.116
-14.000 -33.000 0.122
-14.000 -32.000 0.126
-14.000 -31.000 0.130
-14.000 -30.000 0.132
-14.000 -29.000 0.131
-14.000 -28.000 0.128
-14.000 -27.000 0.122
-14.000 -26.000 0.113
-14.000 -25.000 0.101
-14.000 -24.000 0.088
-14.000 -23.000 0.074
-14.000 -22.000 0.061
-14.000 -21.000 0.047
-14.000 -20.000 0.033
-14.000 -19.000 0.013
-14.000 -18.000 -0.008
-14.000 -17.000 -0.028
-14.000 -16.000 -0.046
-14.000 -15.000 -0.057
-14.000 -14.000 -0.062
-14.000 -13.000 -0.065
-14.000 -12.000 -0.065
-14.000 -11.000 -0.064
-14.000 -10.000 -0.066
-14.000 -9.000 -0.066
-14.000 -8.000 -0.062
-14.000 -7.000 -0.056
-14.000 -6.000 -0.050
-14.000 -5.000 -0.041
-14.000 -4.000 -0.029
-14.000 -3.000 -0.015
-14.000 -2.000 0.004
-14.000 -1.000 0.026
-14.000 0.000 0.048
-14.000 1.000 0.068
-14.000 2.000 0.082
-14.000 3.000 0.090
-14.000 4.000 0.096
-14.000 5.000 0.097
-14.000 6.000 0.094
-14.000 7.000 0.088
-14.000 8.000 0.080
-14.000 9.000 0.071
-14.000 10.000 0.064
-14.000 11.000 0.057
-14.000 12.000 0.050
-14.000 13.000 0.043
-14.000 14.000 0.037
-14.000 15.000 0.032
-14.000 16.000 0.027
-14.000 17.000 0.024
-14.000 18.000 0.020
-14.000 19.000 0.016
-14.000 20.000 0.013
-14.000 21.000 0.010
-14.000 22.000 0.008
-14.000 23.000 0.007
-14.000 24.000 0.006
-14.000 25.000 0.004
-14.000 26.000 0.002
-14.000 27.000 0.000
-14.000 28.000 -0.000
-14.000 29.000 -0.000
-14.000 30.000 0.000
-14.000 31.000 0.000
-14.000 32.000 0.000
-14.000 33.000 -0.003
-14.000 34.000 -0.006
-14.000 35.000 -0.009
-14.000 36.000 -0.013
-14.000 37.000 -0.017
-14.000 38.000 -0.022
-14.000 39.000 -0.027
-14.000 40.000 -0.033
-14.000 41.000 -0.038
-14.000 42.000 -0.044
-14.000 43.000 -0.048
-14.000 44.000 -0.052
-14.000 45.000 -0.056
-14.000 46.000 -0.060
-14.000 47.000 -0.063
-14.000 48.000 -0.065
-14.000 49.000 -0.067
-14.000 50.000 -0.067
-14.000 51.000 -0.068
-14.000 52.000 -0.067
-14.000 53.000 -0.066
-14.000 54.000 -0.064
-14.000 55.000 -0.062
-14.000 56.000 -0.059
-14.000 57.000 -0.055
-14.000 58.000 -0.050
-14.000 59.000 -0.045
-14.000 60.000 -0.040
-14.000 61.000 -0.033
-14.000 62.000 -0.027
-14.000 63.000 -0.020
-14.000 64.000 -0.012
-14.000 65.000 -0.004
-14.000 66.000 0.005
-14.000 67.000 0.013
-14.000 68.000 0.022
-14.000 69.000 0.031
-14.000 70.000 0.040
-14.000 71.000 0.049
-14.000 72.000 0.058
-14.000 73.000 0.067
-14.000 74.000 0.076
-14.000 75.000 0.086
-14.000 76.000 0.095
-14.000 77.000 0.104
-14.000 78.000 0.113
-14.000 79.000 0.122
-14.000 80.000 0.131
-14.000 81.000 0.139
-14.000 82.000 0.147
-14.000 83.000 0.155
-14.000 84.000 0.163
-14.000 85.000 0.170
-14.000 86.000 0.177
-14.000 87.000 0.184
-14.000 88.000 0.191
-14.000 89.000 0.197
-14.000 90.000 0.204
-13.000 -90.000 -0.204
-13.000 -89.000 -0.209
-13.000 -88.000 -0.215
-13.000 -87.000 -0.220
-13.000 -86.000 -0.225
-13.000 -85.000 -0.229
-13.000 -84.000 -0.234
-13.000 -83.000 -0.238
-13.000 -82.000 -0.241
-13.000 -81.000 -0.245
-13.000 -80.000 -0.248
-13.000 -79.000 -0.250
-13.000 -78.000 -0.252
-13.000 -77.000 -0.254
-13.000 -76.000 -0.256
-13.000 -75.000 -0.257
-13.000 -74.000 -0.258
-13.000 -73.000 -0.258
-13.000 -72.000 -0.258
-13.000 -71.000 -0.257
-13.000 -70.000 -0.256
-13.000 -69.000 -0.255
-13.000 -68.000 -0.253
-13.000 -67.000 -0.250
-13.000 -66.000 -0.247
-13.000 -65.000 -0.244
-13.000 -64.000 -0.240
-13.000 -63.000 -0.236
-13.000 -62.000 -0.231
-13.000 -61.000 -0.225
-13.000 -60.000 -0.219
-13.000 -59.000 -0.212
-13.000 -58.000 -0.204
-13.000 -57.000 -0.196
-13.000 -56.000 -0.187
-13.000 -55.000 -0.177
-13.000 -54.000 -0.166
-13.000 -53.000 -0.155
-13.000 -52.000 -0.143
-13.000 -51.000 -0.129
-13.000 -50.000 -0.116
-13.000 -49.000 -0.101
-13.000 -48.000 -0.086
-13.000 -47.000 -0.071
-13.000 -46.000 -0.054
-13.000 -45.000 -0.038
-13.000 -44.000 -0.021
-13.000 -43.000 -0.004
-13.000 -42.000 0.013
-13.000 -41.000 0.029
-13.000 -40.000 0.045
-13.000 -39.000 0.059
-13.000 -38.000 0.073
-13.000 -37.000 0.086
-13.000 -36.000 0.097
-13.000 -35.000 0.107
-13.000 -34.000 0.116
-13.000 -33.000 0.122
-13.000 -32.000 0.127
-13.000 -31.000 0.131
-13.000 -30.000 0.132
-13.000 -29.000 0.131
-13.000 -28.000 0.128
-13.000 -27.000 0.122
-13.000 -26.000 0.113
-13.000 -25.000 0.101
-13.000 -24.000 0.088
-13.000 -23.000 0.074
-13.000 -22.000 0.060
-13.000 -21.000 0.046
-13.000 -20.000 0.030
-13.000 -19.000 0.009
-13.000 -18.000 -0.010
-13.000 -17.000 -0.029
-13.000 -16.000 -0.046
-13.000 -15.000 -0.057
-13.000 -14.000 -0.063
-13.000 -13.000 -0.068
-13.000 -12.000 -0.069
-13.000 -11.000 -0.068
-13.000 -10.000 -0.069
-13.000 -9.000 -0.068
-13.000 -8.000 -0.063
-13.000 -7.000 -0.058
-13.000 -6.000 -0.050
-13.000 -5.000 -0.040
-13.000 -4.000 -0.027
-13.000 -3.000 -0.012
-13.000 -2.000 0.008
-13.000 -1.000 0.030
-13.000 0.000 0.051
-13.000 1.000 0.071
-13.000 2.000 0.087
-13.000 3.000 0.096
-13.000 4.000 0.102
-13.000 5.000 0.103
-13.000 6.000 0.100
-13.000 7.000 0.094
-13.000 8.000 0.086
-13.000 9.000 0.077
-13.000 10.000 0.070
-13.000 11.000 0.062
-13.000 12.000 0.055
-13.000 13.000 0.048
-13.000 14.000 0.041
-13.000 15.000 0.035
-13.000 16.000 0.030
-13.000 17.000 0.026
-13.000 18.000 0.021
-13.000 19.000 0.017
-13.000 20.000 0.013
-13.000 21.000 0.011
-13.000 22.000 0.008
-13.000 23.000 0.007
-13.000 24.000 0.005
-13.000 25.000 0.003
-13.000 26.000 0.002
-13.000 27.000 0.001
-13.000 28.000 0.000
-13.000 29.000 0.000
-13.000 30.000 0.000
-13.000 31.000 0.000
-13.000 32.000 -0.000
-13.000 33.000 -0.002
-13.000 34.000 -0.006
-13.000 35.000 -0.009
-13.000 36.000 -0.012
-13.000 37.000 -0.017
-13.000 38.000 -0.021
-13.000 39.000 -0.026
-13.000 40.000 -0.031
-13.000 41.000 -0.037
-13.000 42.000 -0.041
-13.000 43.000 -0.046
-13.000 44.000 -0.050
-13.000 45.000 -0.054
-13.000 46.000 -0.057
-13.000 47.000 -0.060
-13.000 48.000 -0.062
-13.000 49.000 -0.063
-13.000 50.000 -0.064
-13.000 51.000 -0.064
-13.000 52.000 -0.064
-13.000 53.000 -0.063
-13.000 54.000 -0.061
-13.000 55.000 -0.059
-13.000 56.000 -0.056
-13.000 57.000 -0.052
-13.000 58.000 -0.047
-13.000 59.000 -0.042
-13.000 60.000 -0.037
-13.000 61.000 -0.031
-13.000 62.000 -0.024
-13.000 63.000 -0.018
-13.000 64.000 -0.010
-13.000 65.000 -0.002
-13.000 66.000 0.006
-13.000 67.000 0.014
-13.000 68.000 0.023
-13.000 69.000 0.032
-13.000 70.000 0.040
-13.000 71.000 0.049
-13.000 72.000 0.058
-13.000 73.000 0.068
-13.000 74.000 0.077
-13.000 75.000 0.086
-13.000 76.000 0.095
-13.000 77.000 0.104
-13.000 78.000 0.113
-13.000 79.000 0.122
-13.000 80.000 0.131
-13.000 81.000 0.139
-13.000 82.000 0.147
-13.000 83.000 0.155
-13.000 84.000 0.163
-13.000 85.000 0.170
-13.000 86.000 0.177
-13.000 87.000 0.184
-13.000 88.000 0.191
-13.000 89.000 0.197
-13.000 90.000 0.204
-12.000 -90.000 -0.204
-12.000 -89.000 -0.209
-12.000 -88.000 -0.215
-12.000 -87.000 -0.220
-12.000 -86.000 -0.225
-12.000 -85.000 -0.229
-12.000 -84.000 -0.234
-12.000 -83.000 -0.238
-12.000 -82.000 -0.241
-12.000 -81.000 -0.245
-12.000 -80.000 -0.248
-12.000 -79.000 -0.250
-12.000 -78.000 -0.252
-12.000 -77.000 -0.254
-12.000 -76.000 -0.255
-12.000 -75.000 -0.257
-12.000 -74.000 -0.257
-12.000 -73.000 -0.258
-12.000 -72.000 -0.258
-12.000 -71.000 -0.257
-12.000 -70.000 -0.256
-12.000 -69.000 -0.254
-12.000 -68.000 -0.253
-12.000 -67.000 -0.250
-12.000 -66.000 -0.247
-12.000 -65.000 -0.244
-12.000 -64.000 -0.240
-12.000 -63.000 -0.235
-12.000 -62.000 -0.230
-12.000 -61.000 -0.225
-12.000 -60.000 -0.219
-12.000 -59.000 -0.212
-12.000 -58.000 -0.204
-12.000 -57.000 -0.196
-12.000 -56.000 -0.186
-12.000 -55.000 -0.176
-12.000 -54.000 -0.166
-12.000 -53.000 -0.154
-12.000 -52.000 -0.142
-12.000 -51.000 -0.129
-12.000 -50.000 -0.116
-12.000 -49.000 -0.101
-12.000 -48.000 -0.086
-12.000 -47.000 -0.071
-12.000 -46.000 -0.055
-12.000 -45.000 -0.038
-12.000 -44.000 -0.021
-12.000 -43.000 -0.004
-12.000 -42.000 0.012
-12.000 -41.000 0.028
-12.000 -40.000 0.044
-12.000 -39.000 0.059
-12.000 -38.000 0.072
-12.000 -37.000 0.085
-12.000 -36.000 0.096
-12.000 -35.000 0.107
-12.000 -34.000 0.115
-12.000 -33.000 0.122
-12.000 -32.000 0.127
-12.000 -31.000 0.131
-12.000 -30.000 0.133
-12.000 -29.000 0.132
-12.000 -28.000 0.128
-12.000 -27.000 0.122
-12.000 -26.000 0.113
-12.000 -25.000 0.102
-12.000 -24.000 0.089
-12.000 -23.000 0.075
-12.000 -22.000 0.060
-12.000 -21.000 0.045
-12.000 -20.000 0.027
-12.000 -19.000 0.008
-12.000 -18.000 -0.010
-12.000 -17.000 -0.028
-12.000 -16.000 -0.044
-12.000 -15.000 -0.055
-12.000 -14.000 -0.063
-12.000 -13.000 -0.068
-12.000 -12.000 -0.071
-12.000 -11.000 -0.072
-12.000 -10.000 -0.070
-12.000 -9.000 -0.069
-12.000 -8.000 -0.064
-12.000 -7.000 -0.058
-12.000 -6.000 -0.050
-12.000 -5.000 -0.038
-12.000 -4.000 -0.024
-12.000 -3.000 -0.008
-12.000 -2.000 0.012
-12.000 -1.000 0.034
-12.000 0.000 0.056
-12.000 1.000 0.075
-12.000 2.000 0.092
-12.000 3.000 0.102
-12.000 4.000 0.108
-12.000 5.000 0.109
-12.000 6.000 0.106
-12.000 7.000 0.100
-12.000 8.000 0.092
-12.000 9.000 0.083
-12.000 10.000 0.075
-12.000 11.000 0.067
-12.000 12.000 0.060
-12.000 13.000 0.053
-12.000 14.000 0.046
-12.000 15.000 0.039
-12.000 16.000 0.034
-12.000 17.000 0.029
-12.000 18.000 0.023
-12.000 19.000 0.018
-12.000 20.000 0.014
-12.000 21.000 0.011
-12.000 22.000 0.009
-12.000 23.000 0.007
-12.000 24.000 0.005
-12.000 25.000 0.004
-12.000 26.000 0.003
-12.000 27.000 0.002
-12.000 28.000 0.002
-12.000 29.000 0.002
-12.000 30.000 0.001
-12.000 31.000 0.001
-12.000 32.000 -0.000
-12.000 33.000 -0.002
-12.000 34.000 -0.005
-12.000 35.000 -0.008
-12.000 36.000 -0.012
-12.000 37.000 -0.016
-12.000 38.000 -0.020
-12.000 39.000 -0.024
-12.000 40.000 -0.029
-12.000 41.000 -0.034
-12.000 42.000 -0.039
-12.000 43.000 -0.043
-12.000 44.000 -0.047
-12.000 45.000 -0.050
-12.000 46.000 -0.054
-12.000 47.000 -0.056
-12.000 48.000 -0.058
-12.000 49.000 -0.060
-12.000 50.000 -0.061
-12.000 51.000 -0.061
-12.000 52.000 -0.061
-12.000 53.000 -0.060
-12.000 54.000 -0.058
-12.000 55.000 -0.055
-12.000 56.000 -0.052
-12.000 57.000 -0.049
-12.000 58.000 -0.045
-12.000 59.000 -0.040
-12.000 60.000 -0.034
-12.000 61.000 -0.029
-12.000 62.000 -0.022
-12.000 63.000 -0.015
-12.000 64.000 -0.008
-12.000 65.000 -0.000
-12.000 66.000 0.008
-12.000 67.000 0.016
-12.000 68.000 0.024
-12.000 69.000 0.033
-12.000 70.000 0.041
-12.000 71.000 0.050
-12.000 72.000 0.059
-12.000 73.000 0.068
-12.000 74.000 0.077
-12.000 75.000 0.087
-12.000 76.000 0.096
-12.000 77.000 0.105
-12.000 78.000 0.114
-12.000 79.000 0.122
-12.000 80.000 0.131
-12.000 81.000 0.139
-12.000 82.000 0.148
-12.000 83.000 0.155
-12.000 84.000 0.163
-12.000 85.000 0.170
-12.000 86.000 0.177
-12.000 87.000 0.184
-12.000 88.000 0.191
-12.000 89.000 0.197
-12.000 90.000 0.204
-11.000 -90.000 -0.204
-11.000 -89.000 -0.209
-11.000 -88.000 -0.215
-11.000 -87.000 -0.220
-11.000 -86.000 -0.225
-11.000 -85.000 -0.229
-11.000 -84.000 -0.234
-11.000 -83.000 -0.238
-11.000 -82.000 -0.241
-11.000 -81.000 -0.245
-11.000 -80.000 -0.247
-11.000 -79.000 -0.250
-11.000 -78.000 -0.252
-11.000 -77.000 -0.254
-11.000 -76.000 -0.255
-11.000 -75.000 -0.256
-11.000 -74.000 -0.257
-11.000 -73.000 -0.257
-11.000 -72.000 -0.257
-11.000 -71.000 -0.257
-11.000 -70.000 -0.256
-11.000 -69.000 -0.254
-11.000 -68.000 -0.252
-11.000 -67.000 -0.250
-11.000 -66.000 -0.247
-11.000 -65.000 -0.243
-11.000 -64.000 -0.239
-11.000 -63.000 -0.235
-11.000 -62.000 -0.230
-11.000 -61.000 -0.224
-11.000 -60.000 -0.218
-11.000 -59.000 -0.211
-11.000 -58.000 -0.203
-11.000 -57.000 -0.195
-11.000 -56.000 -0.186
-11.000 -55.000 -0.176
-11.000 -54.000 -0.166
-11.000 -53.000 -0.154
-11.000 -52.000 -0.142
-11.000 -51.000 -0.129
-11.000 -50.000 -0.116
-11.000 -49.000 -0.101
-11.000 -48.000 -0.087
-11.000 -47.000 -0.071
-11.000 -46.000 -0.055
-11.000 -45.000 -0.039
-11.000 -44.000 -0.022
-11.000 -43.000 -0.005
-11.000 -42.000 0.011
-11.000 -41.000 0.028
-11.000 -40.000 0.043
-11.000 -39.000 0.058
-11.000 -38.000 0.071
-11.000 -37.000 0.084
-11.000 -36.000 0.096
-11.000 -35.000 0.106
-11.000 -34.000 0.115
-11.000 -33.000 0.122
-11.000 -32.000 0.127
-11.000 -31.000 0.131
-11.000 -30.000 0.133
-11.000 -29.000 0.132
-11.000 -28.000 0.128
-11.000 -27.000 0.122
-11.000 -26.000 0.113
-11.000 -25.000 0.102
-11.000 -24.000 0.089
-11.000 -23.000 0.075
-11.000 -22.000 0.060
-11.000 -21.000 0.044
-11.000 -20.000 0.027
-11.000 -19.000 0.009
-11.000 -18.000 -0.009
-11.000 -17.000 -0.025
-11.000 -16.000 -0.040
-11.000 -15.000 -0.052
-11.000 -14.000 -0.060
-11.000 -13.000 -0.067
-11.000 -12.000 -0.071
-11.000 -11.000 -0.073
-11.000 -10.000 -0.072
-11.000 -9.000 -0.069
-11.000 -8.000 -0.065
-11.000 -7.000 -0.058
-11.000 -6.000 -0.048
-11.000 -5.000 -0.035
-11.000 -4.000 -0.020
-11.000 -3.000 -0.003
-11.000 -2.000 0.018
-11.000 -1.000 0.039
-11.000 0.000 0.061
-11.000 1.000 0.080
-11.000 2.000 0.097
-11.000 3.000 0.108
-11.000 4.000 0.114
-11.000 5.000 0.115
-11.000 6.000 0.112
-11.000 7.000 0.106
-11.000 8.000 0.099
-11.000 9.000 0.090
-11.000 10.000 0.081
-11.000 11.000 0.073
-11.000 12.000 0.065
-11.000 13.000 0.058
-11.000 14.000 0.051
-11.000 15.000 0.044
-11.000 16.000 0.038
-11.000 17.000 0.032
-11.000 18.000 0.026
-11.000 19.000 0.021
-11.000 20.000 0.016
-11.000 21.000 0.013
-11.000 22.000 0.010
-11.000 23.000 0.008
-11.000 24.000 0.006
-11.000 25.000 0.006
-11.000 26.000 0.005
-11.000 27.000 0.005
-11.000 28.000 0.004
-11.000 29.000 0.004
-11.000 30.000 0.003
-11.000 31.000 0.002
-11.000 32.000 0.001
-11.000 33.000 -0.001
-11.000 34.000 -0.003
-11.000 35.000 -0.007
-11.000 36.000 -0.010
-11.000 37.000 -0.014
-11.000 38.000 -0.018
-11.000 39.000 -0.022
-11.000 40.000 -0.027
-11.000 41.000 -0.031
-11.000 42.000 -0.036
-11.000 43.000 -0.040
-11.000 44.000 -0.044
-11.000 45.000 -0.047
-11.000 46.000 -0.050
-11.000 47.000 -0.053
-11.000 48.000 -0.055
-11.000 49.000 -0.056
-11.000 50.000 -0.057
-11.000 51.000 -0.057
-11.000 52.000 -0.057
-11.000 53.000 -0.056
-11.000 54.000 -0.054
-11.000 55.000 -0.052
-11.000 56.000 -0.049
-11.000 57.000 -0.046
-11.000 58.000 -0.042
-11.000 59.000 -0.037
-11.000 60.000 -0.032
-11.000 61.000 -0.026
-11.000 62.000 -0.020
-11.000 63.000 -0.013
-11.000 64.000 -0.006
-11.000 65.000 0.001
-11.000 66.000 0.009
-11.000 67.000 0.017
-11.000 68.000 0.025
-11.000 69.000 0.034
-11.000 70.000 0.043
-11.000 71.000 0.051
-11.000 72.000 0.060
-11.000 73.000 0.069
-11.000 74.000 0.078
-11.000 75.000 0.087
-11.000 76.000 0.096
-11.000 77.000 0.105
-11.000 78.000 0.114
-11.000 79.000 0.123
-11.000 80.000 0.131
-11.000 81.000 0.139
-11.000 82.000 0.148
-11.000 83.000 0.156
-11.000 84.000 0.163
-11.000 85.000 0.170
-11.000 86.000 0.177
-11.000 87.000 0.184
-11.000 88.000 0.191
-11.000 89.000 0.197
-11.000 90.000 0.204
-10.000 -90.000 -0.204
-10.000 -89.000 -0.209
-10.000 -88.000 -0.215
-10.000 -87.000 -0.220
-10.000 -86.000 -0.225
-10.000 -85.000 -0.229
-10.000 -84.000 -0.234
-10.000 -83.000 -0.238
-10.000 -82.000 -0.241
-10.000 -81.000 -0.244
-10.000 -80.000 -0.247
-10.000 -79.000 -0.250
-10.000 -78.000 -0.252
-10.000 -77.000 -0.254
-10.000 -76.000 -0.255
-10.000 -75.000 -0.256
-10.000 -74.000 -0.257
-10.000 -73.000 -0.257
-10.000 -72.000 -0.257
-10.000 -71.000 -0.256
-10.000 -70.000 -0.255
-10.000 -69.000 -0.254
-10.000 -68.000 -0.252
-10.000 -67.000 -0.249
-10.000 -66.000 -0.246
-10.000 -65.000 -0.243
-10.000 -64.000 -0.239
-10.000 -63.000 -0.235
-10.000 -62.000 -0.230
-10.000 -61.000 -0.224
-10.000 -60.000 -0.218
-10.000 -59.000 -0.211
-10.000 -58.000 -0.203
-10.000 -57.000 -0.195
-10.000 -56.000 -0.186
-10.000 -55.000 -0.176
-10.000 -54.000 -0.165
-10.000 -53.000 -0.154
-10.000 -52.000 -0.142
-10.000 -51.000 -0.129
-10.000 -50.000 -0.116
-10.000 -49.000 -0.102
-10.000 -48.000 -0.087
-10.000 -47.000 -0.071
-10.000 -46.000 -0.055
-10.000 -45.000 -0.039
-10.000 -44.000 -0.022
-10.000 -43.000 -0.006
-10.000 -42.000 0.011
-10.000 -41.000 0.027
-10.000 -40.000 0.042
-10.000 -39.000 0.057
-10.000 -38.000 0.070
-10.000 -37.000 0.083
-10.000 -36.000 0.095
-10.000 -35.000 0.105
-10.000 -34.000 0.114
-10.000 -33.000 0.121
-10.000 -32.000 0.127
-10.000 -31.000 0.131
-10.000 -30.000 0.133
-10.000 -29.000 0.132
-10.000 -28.000 0.128
-10.000 -27.000 0.122
-10.000 -26.000 0.113
-10.000 -25.000 0.103
-10.000 -24.000 0.090
-10.000 -23.000 0.076
-10.000 -22.000 0.061
-10.000 -21.000 0.045
-10.000 -20.000 0.028
-10.000 -19.000 0.012
-10.000 -18.000 -0.005
-10.000 -17.000 -0.020
-10.000 -16.000 -0.034
-10.000 -15.000 -0.046
-10.000 -14.000 -0.055
-10.000 -13.000 -0.063
-10.000 -12.000 -0.068
-10.000 -11.000 -0.071
-10.000 -10.000 -0.072
-10.000 -9.000 -0.069
-10.000 -8.000 -0.064
-10.000 -7.000 -0.055
-10.000 -6.000 -0.044
-10.000 -5.000 -0.030
-10.000 -4.000 -0.014
-10.000 -3.000 0.004
-10.000 -2.000 0.024
-10.000 -1.000 0.046
-10.000 0.000 0.067
-10.000 1.000 0.086
-10.000 2.000 0.102
-10.000 3.000 0.114
-10.000 4.000 0.120
-10.000 5.000 0.121
-10.000 6.000 0.119
-10.000 7.000 0.113
-10.000 8.000 0.105
-10.000 9.000 0.096
-10.000 10.000 0.087
-10.000 11.000 0.079
-10.000 12.000 0.071
-10.000 13.000 0.064
-10.000 14.000 0.056
-10.000 15.000 0.049
-10.000 16.000 0.042
-10.000 17.000 0.036
-10.000 18.000 0.029
-10.000 19.000 0.024
-10.000 20.000 0.019
-10.000 21.000 0.014
-10.000 22.000 0.012
-10.000 23.000 0.010
-10.000 24.000 0.009
-10.000 25.000 0.008
-10.000 26.000 0.008
-10.000 27.000 0.008
-10.000 28.000 0.008
-10.000 29.000 0.007
-10.000 30.000 0.006
-10.000 31.000 0.005
-10.000 32.000 0.003
-10.000 33.000 0.001
-10.000 34.000 -0.002
-10.000 35.000 -0.005
-10.000 36.000 -0.008
-10.000 37.000 -0.012
-10.000 38.000 -0.016
-10.000 39.000 -0.020
-10.000 40.000 -0.024
-10.000 41.000 -0.028
-10.000 42.000 -0.033
-10.000 43.000 -0.037
-10.000 44.000 -0.040
-10.000 45.000 -0.044
-10.000 46.000 -0.047
-10.000 47.000 -0.049
-10.000 48.000 -0.051
-10.000 49.000 -0.052
-10.000 50.000 -0.053
-10.000 51.000 -0.054
-10.000 52.000 -0.053
-10.000 53.000 -0.052
-10.000 54.000 -0.051
-10.000 55.000 -0.049
-10.000 56.000 -0.046
-10.000 57.000 -0.042
-10.000 58.000 -0.038
-10.000 59.000 -0.034
-10.000 60.000 -0.029
-10.000 61.000 -0.023
-10.000 62.000 -0.017
-10.000 63.000 -0.011
-10.000 64.000 -0.004
-10.000 65.000 0.003
-10.000 66.000 0.011
-10.000 67.000 0.019
-10.000 68.000 0.027
-10.000 69.000 0.035
-10.000 70.000 0.044
-10.000 71.000 0.052
-10.000 72.000 0.061
-10.000 73.000 0.070
-10.000 74.000 0.079
-10.000 75.000 0.088
-10.000 76.000 0.097
-10.000 77.000 0.105
-10.000 78.000 0.114
-10.000 79.000 0.123
-10.000 80.000 0.131
-10.000 81.000 0.140
-10.000 82.000 0.148
-10.000 83.000 0.156
-10.000 84.000 0.163
-10.000 85.000 0.170
-10.000 86.000 0.177
-10.000 87.000 0.184
-10.000 88.000 0.191
-10.000 89.000 0.197
-10.000 90.000 0.204
-9.000 -90.000 -0.204
-9.000 -89.000 -0.209
-9.000 -88.000 -0.214
-9.000 -87.000 -0.220
-9.000 -86.000 -0.225
-9.000 -85.000 -0.229
-9.000 -84.000 -0.234
-9.000 -83.000 -0.238
-9.000 -82.000 -0.241
-9.000 -81.000 -0.244
-9.000 -80.000 -0.247
-9.000 -79.000 -0.250
-9.000 -78.000 -0.252
-9.000 -77.000 -0.253
-9.000 -76.000 -0.255
-9.000 -75.000 -0.256
-9.000 -74.000 -0.256
-9.000 -73.000 -0.256
-9.000 -72.000 -0.256
-9.000 -71.000 -0.256
-9.000 -70.000 -0.255
-9.000 -69.000 -0.253
-9.000 -68.000 -0.251
-9.000 -67.000 -0.249
-9.000 -66.000 -0.246
-9.000 -65.000 -0.243
-9.000 -64.000 -0.239
-9.000 -63.000 -0.234
-9.000 -62.000 -0.229
-9.000 -61.000 -0.223
-9.000 -60.000 -0.217
-9.000 -59.000 -0.210
-9.000 -58.000 -0.202
-9.000 -57.000 -0.194
-9.000 -56.000 -0.185
-9.000 -55.000 -0.175
-9.000 -54.000 -0.165
-9.000 -53.000 -0.154
-9.000 -52.000 -0.142
-9.000 -51.000 -0.129
-9.000 -50.000 -0.116
-9.000 -49.000 -0.102
-9.000 -48.000 -0.087
-9.000 -47.000 -0.072
-9.000 -46.000 -0.056
-9.000 -45.000 -0.040
-9.000 -44.000 -0.023
-9.000 -43.000 -0.007
-9.000 -42.000 0.010
-9.000 -41.000 0.026
-9.000 -40.000 0.041
-9.000 -39.000 0.056
-9.000 -38.000 0.069
-9.000 -37.000 0.082
-9.000 -36.000 0.094
-9.000 -35.000 0.104
-9.000 -34.000 0.113
-9.000 -33.000 0.120
-9.000 -32.000 0.126
-9.000 -31.000 0.130
-9.000 -30.000 0.132
-9.000 -29.000 0.131
-9.000 -28.000 0.128
-9.000 -27.000 0.122
-9.000 -26.000 0.114
-9.000 -25.000 0.103
-9.000 -24.000 0.090
-9.000 -23.000 0.076
-9.000 -22.000 0.061
-9.000 -21.000 0.047
-9.000 -20.000 0.032
-9.000 -19.000 0.016
-9.000 -18.000 0.001
-9.000 -17.000 -0.014
-9.000 -16.000 -0.026
-9.000 -15.000 -0.037
-9.000 -14.000 -0.048
-9.000 -13.000 -0.056
-9.000 -12.000 -0.063
-9.000 -11.000 -0.067
-9.000 -10.000 -0.069
-9.000 -9.000 -0.067
-9.000 -8.000 -0.060
-9.000 -7.000 -0.051
-9.000 -6.000 -0.038
-9.000 -5.000 -0.024
-9.000 -4.000 -0.007
-9.000 -3.000 0.011
-9.000 -2.000 0.031
-9.000 -1.000 0.052
-9.000 0.000 0.073
-9.000 1.000 0.092
-9.000 2.000 0.108
-9.000 3.000 0.120
-9.000 4.000 0.126
-9.000 5.000 0.127
-9.000 6.000 0.125
-9.000 7.000 0.119
-9.000 8.000 0.111
-9.000 9.000 0.103
-9.000 10.000 0.094
-9.000 11.000 0.085
-9.000 12.000 0.077
-9.000 13.000 0.069
-9.000 14.000 0.062
-9.000 15.000 0.055
-9.000 16.000 0.048
-9.000 17.000 0.041
-9.000 18.000 0.034
-9.000 19.000 0.027
-9.000 20.000 0.022
-9.000 21.000 0.017
-9.000 22.000 0.014
-9.000 23.000 0.013
-9.000 24.000 0.012
-9.000 25.000 0.012
-9.000 26.000 0.012
-9.000 27.000 0.012
-9.000 28.000 0.012
-9.000 29.000 0.011
-9.000 30.000 0.010
-9.000 31.000 0.008
-9.000 32.000 0.006
-9.000 33.000 0.004
-9.000 34.000 0.001
-9.000 35.000 -0.002
-9.000 36.000 -0.006
-9.000 37.000 -0.009
-9.000 38.000 -0.013
-9.000 39.000 -0.017
-9.000 40.000 -0.021
-9.000 41.000 -0.025
-9.000 42.000 -0.029
-9.000 43.000 -0.033
-9.000 44.000 -0.037
-9.000 45.000 -0.040
-9.000 46.000 -0.043
-9.000 47.000 -0.045
-9.000 48.000 -0.047
-9.000 49.000 -0.049
-9.000 50.000 -0.049
-9.000 51.000 -0.050
-9.000 52.000 -0.049
-9.000 53.000 -0.048
-9.000 54.000 -0.047
-9.000 55.000 -0.045
-9.000 56.000 -0.042
-9.000 57.000 -0.039
-9.000 58.000 -0.035
-9.000 59.000 -0.031
-9.000 60.000 -0.026
-9.000 61.000 -0.021
-9.000 62.000 -0.015
-9.000 63.000 -0.008
-9.000 64.000 -0.002
-9.000 65.000 0.005
-9.000 66.000 0.013
-9.000 67.000 0.021
-9.000 68.000 0.029
-9.000 69.000 0.037
-9.000 70.000 0.045
-9.000 71.000 0.054
-9.000 72.000 0.062
-9.000 73.000 0.071
-9.000 74.000 0.080
-9.000 75.000 0.088
-9.000 76.000 0.097
-9.000 77.000 0.106
-9.000 78.000 0.115
-9.000 79.000 0.123
-9.000 80.000 0.132
-9.000 81.000 0.140
-9.000 82.000 0.148
-9.000 83.000 0.156
-9.000 84.000 0.163
-9.000 85.000 0.171
-9.000 86.000 0.178
-9.000 87.000 0.184
-9.000 88.000 0.191
-9.000 89.000 0.197
-9.000 90.000 0.204
-8.000 -90.000 -0.204
-8.000 -89.000 -0.209
-8.000 -88.000 -0.214
-8.000 -87.000 -0.220
-8.000 -86.000 -0.225
-8.000 -85.000 -0.229
-8.000 -84.000 -0.234
-8.000 -83.000 -0.238
-8.000 -82.000 -0.241
-8.000 -81.000 -0.244
-8.000 -80.000 -0.247
-8.000 -79.000 -0.249
-8.000 -78.000 -0.251
-8.000 -77.000 -0.253
-8.000 -76.000 -0.254
-8.000 -75.000 -0.255
-8.000 -74.000 -0.256
-8.000 -73.000 -0.256
-8.000 -72.000 -0.256
-8.000 -71.000 -0.255
-8.000 -70.000 -0.254
-8.000 -69.000 -0.253
-8.000 -68.000 -0.251
-8.000 -67.000 -0.249
-8.000 -66.000 -0.246
-8.000 -65.000 -0.242
-8.000 -64.000 -0.238
-8.000 -63.000 -0.234
-8.000 -62.000 -0.229
-8.000 -61.000 -0.223
-8.000 -60.000 -0.217
-8.000 -59.000 -0.210
-8.000 -58.000 -0.202
-8.000 -57.000 -0.194
-8.000 -56.000 -0.185
-8.000 -55.000 -0.175
-8.000 -54.000 -0.165
-8.000 -53.000 -0.154
-8.000 -52.000 -0.142
-8.000 -51.000 -0.129
-8.000 -50.000 -0.116
-8.000 -49.000 -0.102
-8.000 -48.000 -0.087
-8.000 -47.000 -0.072
-8.000 -46.000 -0.057
-8.000 -45.000 -0.041
-8.000 -44.000 -0.024
-8.000 -43.000 -0.008
-8.000 -42.000 0.009
-8.000 -41.000 0.024
-8.000 -40.000 0.040
-8.000 -39.000 0.054
-8.000 -38.000 0.068
-8.000 -37.000 0.081
-8.000 -36.000 0.092
-8.000 -35.000 0.103
-8.000 -34.000 0.112
-8.000 -33.000 0.119
-8.000 -32.000 0.125
-8.000 -31.000 0.129
-8.000 -30.000 0.131
-8.000 -29.000 0.131
-8.000 -28.000 0.128
-8.000 -27.000 0.122
-8.000 -26.000 0.113
-8.000 -25.000 0.103
-8.000 -24.000 0.091
-8.000 -23.000 0.077
-8.000 -22.000 0.063
-8.000 -21.000 0.050
-8.000 -20.000 0.036
-8.000 -19.000 0.021
-8.000 -18.000 0.007
-8.000 -17.000 -0.006
-8.000 -16.000 -0.018
-8.000 -15.000 -0.028
-8.000 -14.000 -0.037
-8.000 -13.000 -0.047
-8.000 -12.000 -0.055
-8.000 -11.000 -0.060
-8.000 -10.000 -0.063
-8.000 -9.000 -0.062
-8.000 -8.000 -0.054
-8.000 -7.000 -0.044
-8.000 -6.000 -0.030
-8.000 -5.000 -0.014
-8.000 -4.000 0.004
-8.000 -3.000 0.018
-8.000 -2.000 0.037
-8.000 -1.000 0.058
-8.000 0.000 0.079
-8.000 1.000 0.098
-8.000 2.000 0.113
-8.000 3.000 0.125
-8.000 4.000 0.132
-8.000 5.000 0.134
-8.000 6.000 0.131
-8.000 7.000 0.125
-8.000 8.000 0.118
-8.000 9.000 0.109
-8.000 10.000 0.101
-8.000 11.000 0.092
-8.000 12.000 0.084
-8.000 13.000 0.076
-8.000 14.000 0.068
-8.000 15.000 0.060
-8.000 16.000 0.053
-8.000 17.000 0.047
-8.000 18.000 0.039
-8.000 19.000 0.033
-8.000 20.000 0.026
-8.000 21.000 0.021
-8.000 22.000 0.018
-8.000 23.000 0.017
-8.000 24.000 0.016
-8.000 25.000 0.017
-8.000 26.000 0.017
-8.000 27.000 0.017
-8.000 28.000 0.016
-8.000 29.000 0.015
-8.000 30.000 0.014
-8.000 31.000 0.012
-8.000 32.000 0.010
-8.000 33.000 0.007
-8.000 34.000 0.004
-8.000 35.000 0.001
-8.000 36.000 -0.002
-8.000 37.000 -0.006
-8.000 38.000 -0.009
-8.000 39.000 -0.013
-8.000 40.000 -0.018
-8.000 41.000 -0.022
-8.000 42.000 -0.025
-8.000 43.000 -0.029
-8.000 44.000 -0.033
-8.000 45.000 -0.036
-8.000 46.000 -0.039
-8.000 47.000 -0.041
-8.000 48.000 -0.043
-8.000 49.000 -0.044
-8.000 50.000 -0.045
-8.000 51.000 -0.045
-8.000 52.000 -0.045
-8.000 53.000 -0.044
-8.000 54.000 -0.043
-8.000 55.000 -0.041
-8.000 56.000 -0.039
-8.000 57.000 -0.036
-8.000 58.000 -0.032
-8.000 59.000 -0.028
-8.000 60.000 -0.023
-8.000 61.000 -0.018
-8.000 62.000 -0.012
-8.000 63.000 -0.006
-8.000 64.000 0.001
-8.000 65.000 0.007
-8.000 66.000 0.015
-8.000 67.000 0.022
-8.000 68.000 0.030
-8.000 69.000 0.038
-8.000 70.000 0.047
-8.000 71.000 0.055
-8.000 72.000 0.063
-8.000 73.000 0.072
-8.000 74.000 0.080
-8.000 75.000 0.089
-8.000 76.000 0.098
-8.000 77.000 0.106
-8.000 78.000 0.115
-8.000 79.000 0.123
-8.000 80.000 0.132
-8.000 81.000 0.140
-8.000 82.000 0.148
-8.000 83.000 0.156
-8.000 84.000 0.163
-8.000 85.000 0.171
-8.000 86.000 0.178
-8.000 87.000 0.184
-8.000 88.000 0.191
-8.000 89.000 0.197
-8.000 90.000 0.204
-7.000 -90.000 -0.204
-7.000 -89.000 -0.209
-7.000 -88.000 -0.214
-7.000 -87.000 -0.219
-7.000 -86.000 -0.224
-7.000 -85.000 -0.229
-7.000 -84.000 -0.234
-7.000 -83.000 -0.237
-7.000 -82.000 -0.241
-7.000 -81.000 -0.244
-7.000 -80.000 -0.247
-7.000 -79.000 -0.249
-7.000 -78.000 -0.251
-7.000 -77.000 -0.253
-7.000 -76.000 -0.254
-7.000 -75.000 -0.255
-7.000 -74.000 -0.256
-7.000 -73.000 -0.256
-7.000 -72.000 -0.255
-7.000 -71.000 -0.255
-7.000 -70.000 -0.254
-7.000 -69.000 -0.252
-7.000 -68.000 -0.251
-7.000 -67.000 -0.248
-7.000 -66.000 -0.245
-7.000 -65.000 -0.242
-7.000 -64.000 -0.238
-7.000 -63.000 -0.233
-7.000 -62.000 -0.228
-7.000 -61.000 -0.222
-7.000 -60.000 -0.216
-7.000 -59.000 -0.209
-7.000 -58.000 -0.202
-7.000 -57.000 -0.193
-7.000 -56.000 -0.185
-7.000 -55.000 -0.175
-7.000 -54.000 -0.165
-7.000 -53.000 -0.154
-7.000 -52.000 -0.142
-7.000 -51.000 -0.129
-7.000 -50.000 -0.116
-7.000 -49.000 -0.102
-7.000 -48.000 -0.088
-7.000 -47.000 -0.073
-7.000 -46.000 -0.057
-7.000 -45.000 -0.042
-7.000 -44.000 -0.025
-7.000 -43.000 -0.009
-7.000 -42.000 0.007
-7.000 -41.000 0.023
-7.000 -40.000 0.038
-7.000 -39.000 0.053
-7.000 -38.000 0.067
-7.000 -37.000 0.079
-7.000 -36.000 0.091
-7.000 -35.000 0.102
-7.000 -34.000 0.110
-7.000 -33.000 0.118
-7.000 -32.000 0.124
-7.000 -31.000 0.128
-7.000 -30.000 0.130
-7.000 -29.000 0.130
-7.000 -28.000 0.127
-7.000 -27.000 0.122
-7.000 -26.000 0.113
-7.000 -25.000 0.103
-7.000 -24.000 0.091
-7.000 -23.000 0.077
-7.000 -22.000 0.064
-7.000 -21.000 0.052
-7.000 -20.000 0.041
-7.000 -19.000 0.027
-7.000 -18.000 0.014
-7.000 -17.000 0.002
-7.000 -16.000 -0.009
-7.000 -15.000 -0.018
-7.000 -14.000 -0.023
-7.000 -13.000 -0.035
-7.000 -12.000 -0.044
-7.000 -11.000 -0.051
-7.000 -10.000 -0.056
-7.000 -9.000 -0.055
-7.000 -8.000 -0.046
-7.000 -7.000 -0.034
-7.000 -6.000 -0.019
-7.000 -5.000 -0.002
-7.000 -4.000 0.013
-7.000 -3.000 0.024
-7.000 -2.000 0.044
-7.000 -1.000 0.064
-7.000 0.000 0.084
-7.000 1.000 0.103
-7.000 2.000 0.118
-7.000 3.000 0.131
-7.000 4.000 0.138
-7.000 5.000 0.140
-7.000 6.000 0.138
-7.000 7.000 0.132
-7.000 8.000 0.124
-7.000 9.000 0.116
-7.000 10.000 0.108
-7.000 11.000 0.099
-7.000 12.000 0.091
-7.000 13.000 0.083
-7.000 14.000 0.075
-7.000 15.000 0.066
-7.000 16.000 0.060
-7.000 17.000 0.054
-7.000 18.000 0.046
-7.000 19.000 0.039
-7.000 20.000 0.032
-7.000 21.000 0.026
-7.000 22.000 0.022
-7.000 23.000 0.021
-7.000 24.000 0.022
-7.000 25.000 0.022
-7.000 26.000 0.023
-7.000 27.000 0.022
-7.000 28.000 0.021
-7.000 29.000 0.020
-7.000 30.000 0.019
-7.000 31.000 0.017
-7.000 32.000 0.014
-7.000 33.000 0.011
-7.000 34.000 0.007
-7.000 35.000 0.005
-7.000 36.000 0.002
-7.000 37.000 -0.002
-7.000 38.000 -0.005
-7.000 39.000 -0.009
-7.000 40.000 -0.014
-7.000 41.000 -0.018
-7.000 42.000 -0.021
-7.000 43.000 -0.025
-7.000 44.000 -0.028
-7.000 45.000 -0.031
-7.000 46.000 -0.034
-7.000 47.000 -0.037
-7.000 48.000 -0.039
-7.000 49.000 -0.040
-7.000 50.000 -0.041
-7.000 51.000 -0.041
-7.000 52.000 -0.041
-7.000 53.000 -0.040
-7.000 54.000 -0.039
-7.000 55.000 -0.037
-7.000 56.000 -0.035
-7.000 57.000 -0.032
-7.000 58.000 -0.029
-7.000 59.000 -0.024
-7.000 60.000 -0.020
-7.000 61.000 -0.015
-7.000 62.000 -0.009
-7.000 63.000 -0.003
-7.000 64.000 0.003
-7.000 65.000 0.010
-7.000 66.000 0.017
-7.000 67.000 0.024
-7.000 68.000 0.032
-7.000 69.000 0.040
-7.000 70.000 0.048
-7.000 71.000 0.056
-7.000 72.000 0.064
-7.000 73.000 0.073
-7.000 74.000 0.081
-7.000 75.000 0.090
-7.000 76.000 0.098
-7.000 77.000 0.107
-7.000 78.000 0.115
-7.000 79.000 0.124
-7.000 80.000 0.132
-7.000 81.000 0.140
-7.000 82.000 0.148
-7.000 83.000 0.156
-7.000 84.000 0.164
-7.000 85.000 0.171
-7.000 86.000 0.178
-7.000 87.000 0.184
-7.000 88.000 0.191
-7.000 89.000 0.198
-7.000 90.000 0.204
-6.000 -90.000 -0.204
-6.000 -89.000 -0.209
-6.000 -88.000 -0.214
-6.000 -87.000 -0.219
-6.000 -86.000 -0.224
-6.000 -85.000 -0.229
-6.000 -84.000 -0.234
-6.000 -83.000 -0.237
-6.000 -82.000 -0.241
-6.000 -81.000 -0.244
-6.000 -80.000 -0.246
-6.000 -79.000 -0.249
-6.000 -78.000 -0.251
-6.000 -77.000 -0.253
-6.000 -76.000 -0.254
-6.000 -75.000 -0.255
-6.000 -74.000 -0.255
-6.000 -73.000 -0.255
-6.000 -72.000 -0.255
-6.000 -71.000 -0.254
-6.000 -70.000 -0.253
-6.000 -69.000 -0.252
-6.000 -68.000 -0.250
-6.000 -67.000 -0.248
-6.000 -66.000 -0.245
-6.000 -65.000 -0.242
-6.000 -64.000 -0.238
-6.000 -63.000 -0.233
-6.000 -62.000 -0.228
-6.000 -61.000 -0.222
-6.000 -60.000 -0.215
-6.000 -59.000 -0.209
-6.000 -58.000 -0.201
-6.000 -57.000 -0.193
-6.000 -56.000 -0.184
-6.000 -55.000 -0.175
-6.000 -54.000 -0.164
-6.000 -53.000 -0.154
-6.000 -52.000 -0.142
-6.000 -51.000 -0.130
-6.000 -50.000 -0.116
-6.000 -49.000 -0.103
-6.000 -48.000 -0.088
-6.000 -47.000 -0.074
-6.000 -46.000 -0.058
-6.000 -45.000 -0.043
-6.000 -44.000 -0.026
-6.000 -43.000 -0.010
-6.000 -42.000 0.006
-6.000 -41.000 0.022
-6.000 -40.000 0.037
-6.000 -39.000 0.051
-6.000 -38.000 0.065
-6.000 -37.000 0.078
-6.000 -36.000 0.089
-6.000 -35.000 0.100
-6.000 -34.000 0.109
-6.000 -33.000 0.116
-6.000 -32.000 0.122
-6.000 -31.000 0.127
-6.000 -30.000 0.129
-6.000 -29.000 0.129
-6.000 -28.000 0.126
-6.000 -27.000 0.121
-6.000 -26.000 0.113
-6.000 -25.000 0.103
-6.000 -24.000 0.091
-6.000 -23.000 0.078
-6.000 -22.000 0.066
-6.000 -21.000 0.054
-6.000 -20.000 0.046
-6.000 -19.000 0.034
-6.000 -18.000 0.022
-6.000 -17.000 0.011
-6.000 -16.000 0.001
-6.000 -15.000 -0.009
-6.000 -14.000 -0.010
-6.000 -13.000 -0.020
-6.000 -12.000 -0.031
-6.000 -11.000 -0.040
-6.000 -10.000 -0.046
-6.000 -9.000 -0.046
-6.000 -8.000 -0.036
-6.000 -7.000 -0.023
-6.000 -6.000 -0.006
-6.000 -5.000 0.011
-6.000 -4.000 0.021
-6.000 -3.000 0.031
-6.000 -2.000 0.049
-6.000 -1.000 0.070
-6.000 0.000 0.090
-6.000 1.000 0.108
-6.000 2.000 0.122
-6.000 3.000 0.137
-6.000 4.000 0.143
-6.000 5.000 0.147
-6.000 6.000 0.144
-6.000 7.000 0.139
-6.000 8.000 0.131
-6.000 9.000 0.123
-6.000 10.000 0.115
-6.000 11.000 0.106
-6.000 12.000 0.098
-6.000 13.000 0.090
-6.000 14.000 0.081
-6.000 15.000 0.073
-6.000 16.000 0.066
-6.000 17.000 0.061
-6.000 18.000 0.054
-6.000 19.000 0.045
-6.000 20.000 0.038
-6.000 21.000 0.031
-6.000 22.000 0.028
-6.000 23.000 0.027
-6.000 24.000 0.028
-6.000 25.000 0.029
-6.000 26.000 0.030
-6.000 27.000 0.027
-6.000 28.000 0.026
-6.000 29.000 0.025
-6.000 30.000 0.024
-6.000 31.000 0.021
-6.000 32.000 0.019
-6.000 33.000 0.014
-6.000 34.000 0.011
-6.000 35.000 0.009
-6.000 36.000 0.006
-6.000 37.000 0.003
-6.000 38.000 -0.001
-6.000 39.000 -0.005
-6.000 40.000 -0.009
-6.000 41.000 -0.014
-6.000 42.000 -0.017
-6.000 43.000 -0.020
-6.000 44.000 -0.024
-6.000 45.000 -0.027
-6.000 46.000 -0.030
-6.000 47.000 -0.032
-6.000 48.000 -0.034
-6.000 49.000 -0.035
-6.000 50.000 -0.036
-6.000 51.000 -0.036
-6.000 52.000 -0.037
-6.000 53.000 -0.036
-6.000 54.000 -0.035
-6.000 55.000 -0.033
-6.000 56.000 -0.031
-6.000 57.000 -0.028
-6.000 58.000 -0.025
-6.000 59.000 -0.021
-6.000 60.000 -0.017
-6.000 61.000 -0.012
-6.000 62.000 -0.006
-6.000 63.000 -0.001
-6.000 64.000 0.005
-6.000 65.000 0.012
-6.000 66.000 0.019
-6.000 67.000 0.026
-6.000 68.000 0.034
-6.000 69.000 0.042
-6.000 70.000 0.049
-6.000 71.000 0.057
-6.000 72.000 0.065
-6.000 73.000 0.074
-6.000 74.000 0.082
-6.000 75.000 0.090
-6.000 76.000 0.099
-6.000 77.000 0.107
-6.000 78.000 0.116
-6.000 79.000 0.124
-6.000 80.000 0.132
-6.000 81.000 0.141
-6.000 82.000 0.149
-6.000 83.000 0.156
-6.000 84.000 0.164
-6.000 85.000 0.171
-6.000 86.000 0.178
-6.000 87.000 0.185
-6.000 88.000 0.191
-6.000 89.000 0.198
-6.000 90.000 0.204
-5.000 -90.000 -0.204
-5.000 -89.000 -0.209
-5.000 -88.000 -0.214
-5.000 -87.000 -0.219
-5.000 -86.000 -0.224
-5.000 -85.000 -0.229
-5.000 -84.000 -0.233
-5.000 -83.000 -0.237
-5.000 -82.000 -0.241
-5.000 -81.000 -0.244
-5.000 -80.000 -0.246
-5.000 -79.000 -0.249
-5.000 -78.000 -0.251
-5.000 -77.000 -0.252
-5.000 -76.000 -0.254
-5.000 -75.000 -0.254
-5.000 -74.000 -0.255
-5.000 -73.000 -0.255
-5.000 -72.000 -0.255
-5.000 -71.000 -0.254
-5.000 -70.000 -0.253
-5.000 -69.000 -0.251
-5.000 -68.000 -0.250
-5.000 -67.000 -0.247
-5.000 -66.000 -0.245
-5.000 -65.000 -0.241
-5.000 -64.000 -0.237
-5.000 -63.000 -0.232
-5.000 -62.000 -0.227
-5.000 -61.000 -0.221
-5.000 -60.000 -0.215
-5.000 -59.000 -0.208
-5.000 -58.000 -0.201
-5.000 -57.000 -0.193
-5.000 -56.000 -0.184
-5.000 -55.000 -0.174
-5.000 -54.000 -0.164
-5.000 -53.000 -0.153
-5.000 -52.000 -0.142
-5.000 -51.000 -0.130
-5.000 -50.000 -0.117
-5.000 -49.000 -0.103
-5.000 -48.000 -0.089
-5.000 -47.000 -0.074
-5.000 -46.000 -0.059
-5.000 -45.000 -0.044
-5.000 -44.000 -0.028
-5.000 -43.000 -0.012
-5.000 -42.000 0.005
-5.000 -41.000 0.020
-5.000 -40.000 0.035
-5.000 -39.000 0.050
-5.000 -38.000 0.063
-5.000 -37.000 0.076
-5.000 -36.000 0.088
-5.000 -35.000 0.098
-5.000 -34.000 0.107
-5.000 -33.000 0.115
-5.000 -32.000 0.120
-5.000 -31.000 0.125
-5.000 -30.000 0.127
-5.000 -29.000 0.127
-5.000 -28.000 0.125
-5.000 -27.000 0.120
-5.000 -26.000 0.112
-5.000 -25.000 0.102
-5.000 -24.000 0.090
-5.000 -23.000 0.078
-5.000 -22.000 0.068
-5.000 -21.000 0.057
-5.000 -20.000 0.049
-5.000 -19.000 0.041
-5.000 -18.000 0.030
-5.000 -17.000 0.020
-5.000 -16.000 0.010
-5.000 -15.000 0.001
-5.000 -14.000 0.001
-5.000 -13.000 -0.004
-5.000 -12.000 -0.016
-5.000 -11.000 -0.026
-5.000 -10.000 -0.034
-5.000 -9.000 -0.034
-5.000 -8.000 -0.025
-5.000 -7.000 -0.009
-5.000 -6.000 0.008
-5.000 -5.000 0.023
-5.000 -4.000 0.028
-5.000 -3.000 0.037
-5.000 -2.000 0.055
-5.000 -1.000 0.075
-5.000 0.000 0.094
-5.000 1.000 0.112
-5.000 2.000 0.126
-5.000 3.000 0.142
-5.000 4.000 0.149
-5.000 5.000 0.153
-5.000 6.000 0.151
-5.000 7.000 0.145
-5.000 8.000 0.138
-5.000 9.000 0.129
-5.000 10.000 0.122
-5.000 11.000 0.113
-5.000 12.000 0.105
-5.000 13.000 0.097
-5.000 14.000 0.087
-5.000 15.000 0.080
-5.000 16.000 0.073
-5.000 17.000 0.067
-5.000 18.000 0.062
-5.000 19.000 0.053
-5.000 20.000 0.045
-5.000 21.000 0.038
-5.000 22.000 0.034
-5.000 23.000 0.033
-5.000 24.000 0.035
-5.000 25.000 0.036
-5.000 26.000 0.036
-5.000 27.000 0.033
-5.000 28.000 0.032
-5.000 29.000 0.031
-5.000 30.000 0.029
-5.000 31.000 0.026
-5.000 32.000 0.023
-5.000 33.000 0.018
-5.000 34.000 0.015
-5.000 35.000 0.014
-5.000 36.000 0.011
-5.000 37.000 0.008
-5.000 38.000 0.004
-5.000 39.000 -0.001
-5.000 40.000 -0.005
-5.000 41.000 -0.009
-5.000 42.000 -0.013
-5.000 43.000 -0.016
-5.000 44.000 -0.019
-5.000 45.000 -0.022
-5.000 46.000 -0.025
-5.000 47.000 -0.027
-5.000 48.000 -0.029
-5.000 49.000 -0.031
-5.000 50.000 -0.031
-5.000 51.000 -0.032
-5.000 52.000 -0.032
-5.000 53.000 -0.032
-5.000 54.000 -0.031
-5.000 55.000 -0.029
-5.000 56.000 -0.027
-5.000 57.000 -0.025
-5.000 58.000 -0.021
-5.000 59.000 -0.018
-5.000 60.000 -0.014
-5.000 61.000 -0.009
-5.000 62.000 -0.004
-5.000 63.000 0.002
-5.000 64.000 0.008
-5.000 65.000 0.014
-5.000 66.000 0.021
-5.000 67.000 0.028
-5.000 68.000 0.036
-5.000 69.000 0.043
-5.000 70.000 0.051
-5.000 71.000 0.059
-5.000 72.000 0.067
-5.000 73.000 0.075
-5.000 74.000 0.083
-5.000 75.000 0.091
-5.000 76.000 0.100
-5.000 77.000 0.108
-5.000 78.000 0.116
-5.000 79.000 0.125
-5.000 80.000 0.133
-5.000 81.000 0.141
-5.000 82.000 0.149
-5.000 83.000 0.156
-5.000 84.000 0.164
-5.000 85.000 0.171
-5.000 86.000 0.178
-5.000 87.000 0.185
-5.000 88.000 0.191
-5.000 89.000 0.198
-5.000 90.000 0.204
-4.000 -90.000 -0.204
-4.000 -89.000 -0.209
-4.000 -88.000 -0.214
-4.000 -87.000 -0.219
-4.000 -86.000 -0.224
-4.000 -85.000 -0.229
-4.000 -84.000 -0.233
-4.000 -83.000 -0.237
-4.000 -82.000 -0.240
-4.000 -81.000 -0.243
-4.000 -80.000 -0.246
-4.000 -79.000 -0.248
-4.000 -78.000 -0.250
-4.000 -77.000 -0.252
-4.000 -76.000 -0.253
-4.000 -75.000 -0.254
-4.000 -74.000 -0.254
-4.000 -73.000 -0.254
-4.000 -72.000 -0.254
-4.000 -71.000 -0.254
-4.000 -70.000 -0.252
-4.000 -69.000 -0.251
-4.000 -68.000 -0.249
-4.000 -67.000 -0.247
-4.000 -66.000 -0.244
-4.000 -65.000 -0.241
-4.000 -64.000 -0.237
-4.000 -63.000 -0.232
-4.000 -62.000 -0.227
-4.000 -61.000 -0.221
-4.000 -60.000 -0.215
-4.000 -59.000 -0.208
-4.000 -58.000 -0.200
-4.000 -57.000 -0.192
-4.000 -56.000 -0.184
-4.000 -55.000 -0.174
-4.000 -54.000 -0.164
-4.000 -53.000 -0.153
-4.000 -52.000 -0.142
-4.000 -51.000 -0.130
-4.000 -50.000 -0.117
-4.000 -49.000 -0.103
-4.000 -48.000 -0.089
-4.000 -47.000 -0.075
-4.000 -46.000 -0.060
-4.000 -45.000 -0.045
-4.000 -44.000 -0.029
-4.000 -43.000 -0.013
-4.000 -42.000 0.003
-4.000 -41.000 0.019
-4.000 -40.000 0.033
-4.000 -39.000 0.048
-4.000 -38.000 0.061
-4.000 -37.000 0.074
-4.000 -36.000 0.086
-4.000 -35.000 0.096
-4.000 -34.000 0.105
-4.000 -33.000 0.113
-4.000 -32.000 0.119
-4.000 -31.000 0.123
-4.000 -30.000 0.126
-4.000 -29.000 0.126
-4.000 -28.000 0.124
-4.000 -27.000 0.120
-4.000 -26.000 0.112
-4.000 -25.000 0.102
-4.000 -24.000 0.090
-4.000 -23.000 0.079
-4.000 -22.000 0.071
-4.000 -21.000 0.060
-4.000 -20.000 0.052
-4.000 -19.000 0.047
-4.000 -18.000 0.038
-4.000 -17.000 0.029
-4.000 -16.000 0.020
-4.000 -15.000 0.011
-4.000 -14.000 0.012
-4.000 -13.000 0.012
-4.000 -12.000 0.001
-4.000 -11.000 -0.011
-4.000 -10.000 -0.020
-4.000 -9.000 -0.021
-4.000 -8.000 -0.011
-4.000 -7.000 0.006
-4.000 -6.000 0.024
-4.000 -5.000 0.034
-4.000 -4.000 0.035
-4.000 -3.000 0.043
-4.000 -2.000 0.060
-4.000 -1.000 0.080
-4.000 0.000 0.099
-4.000 1.000 0.115
-4.000 2.000 0.131
-4.000 3.000 0.148
-4.000 4.000 0.155
-4.000 5.000 0.158
-4.000 6.000 0.158
-4.000 7.000 0.152
-4.000 8.000 0.144
-4.000 9.000 0.136
-4.000 10.000 0.129
-4.000 11.000 0.120
-4.000 12.000 0.112
-4.000 13.000 0.104
-4.000 14.000 0.094
-4.000 15.000 0.087
-4.000 16.000 0.081
-4.000 17.000 0.074
-4.000 18.000 0.070
-4.000 19.000 0.062
-4.000 20.000 0.053
-4.000 21.000 0.045
-4.000 22.000 0.041
-4.000 23.000 0.041
-4.000 24.000 0.042
-4.000 25.000 0.044
-4.000 26.000 0.042
-4.000 27.000 0.038
-4.000 28.000 0.037
-4.000 29.000 0.037
-4.000 30.000 0.034
-4.000 31.000 0.032
-4.000 32.000 0.027
-4.000 33.000 0.022
-4.000 34.000 0.020
-4.000 35.000 0.019
-4.000 36.000 0.016
-4.000 37.000 0.013
-4.000 38.000 0.009
-4.000 39.000 0.003
-4.000 40.000 -0.000
-4.000 41.000 -0.005
-4.000 42.000 -0.009
-4.000 43.000 -0.011
-4.000 44.000 -0.014
-4.000 45.000 -0.017
-4.000 46.000 -0.020
-4.000 47.000 -0.023
-4.000 48.000 -0.024
-4.000 49.000 -0.026
-4.000 50.000 -0.026
-4.000 51.000 -0.028
-4.000 52.000 -0.028
-4.000 53.000 -0.027
-4.000 54.000 -0.027
-4.000 55.000 -0.025
-4.000 56.000 -0.023
-4.000 57.000 -0.021
-4.000 58.000 -0.018
-4.000 59.000 -0.014
-4.000 60.000 -0.010
-4.000 61.000 -0.006
-4.000 62.000 -0.001
-4.000 63.000 0.005
-4.000 64.000 0.010
-4.000 65.000 0.016
-4.000 66.000 0.023
-4.000 67.000 0.030
-4.000 68.000 0.038
-4.000 69.000 0.045
-4.000 70.000 0.052
-4.000 71.000 0.060
-4.000 72.000 0.068
-4.000 73.000 0.076
-4.000 74.000 0.084
-4.000 75.000 0.092
-4.000 76.000 0.100
-4.000 77.000 0.108
-4.000 78.000 0.117
-4.000 79.000 0.125
-4.000 80.000 0.133
-4.000 81.000 0.141
-4.000 82.000 0.149
-4.000 83.000 0.157
-4.000 84.000 0.164
-4.000 85.000 0.171
-4.000 86.000 0.178
-4.000 87.000 0.185
-4.000 88.000 0.191
-4.000 89.000 0.198
-4.000 90.000 0.204
-3.000 -90.000 -0.204
-3.000 -89.000 -0.209
-3.000 -88.000 -0.214
-3.000 -87.000 -0.219
-3.000 -86.000 -0.224
-3.000 -85.000 -0.229
-3.000 -84.000 -0.233
-3.000 -83.000 -0.237
-3.000 -82.000 -0.240
-3.000 -81.000 -0.243
-3.000 -80.000 -0.246
-3.000 -79.000 -0.248
-3.000 -78.000 -0.250
-3.000 -77.000 -0.252
-3.000 -76.000 -0.253
-3.000 -75.000 -0.254
-3.000 -74.000 -0.254
-3.000 -73.000 -0.254
-3.000 -72.000 -0.254
-3.000 -71.000 -0.253
-3.000 -70.000 -0.252
-3.000 -69.000 -0.250
-3.000 -68.000 -0.249
-3.000 -67.000 -0.246
-3.000 -66.000 -0.244
-3.000 -65.000 -0.240
-3.000 -64.000 -0.236
-3.000 -63.000 -0.231
-3.000 -62.000 -0.226
-3.000 -61.000 -0.220
-3.000 -60.000 -0.214
-3.000 -59.000 -0.208
-3.000 -58.000 -0.200
-3.000 -57.000 -0.192
-3.000 -56.000 -0.183
-3.000 -55.000 -0.174
-3.000 -54.000 -0.164
-3.000 -53.000 -0.153
-3.000 -52.000 -0.142
-3.000 -51.000 -0.130
-3.000 -50.000 -0.117
-3.000 -49.000 -0.104
-3.000 -48.000 -0.090
-3.000 -47.000 -0.076
-3.000 -46.000 -0.061
-3.000 -45.000 -0.046
-3.000 -44.000 -0.030
-3.000 -43.000 -0.015
-3.000 -42.000 0.001
-3.000 -41.000 0.017
-3.000 -40.000 0.032
-3.000 -39.000 0.046
-3.000 -38.000 0.060
-3.000 -37.000 0.072
-3.000 -36.000 0.084
-3.000 -35.000 0.094
-3.000 -34.000 0.103
-3.000 -33.000 0.111
-3.000 -32.000 0.117
-3.000 -31.000 0.121
-3.000 -30.000 0.124
-3.000 -29.000 0.125
-3.000 -28.000 0.123
-3.000 -27.000 0.119
-3.000 -26.000 0.111
-3.000 -25.000 0.101
-3.000 -24.000 0.090
-3.000 -23.000 0.081
-3.000 -22.000 0.073
-3.000 -21.000 0.063
-3.000 -20.000 0.055
-3.000 -19.000 0.053
-3.000 -18.000 0.046
-3.000 -17.000 0.038
-3.000 -16.000 0.030
-3.000 -15.000 0.021
-3.000 -14.000 0.023
-3.000 -13.000 0.027
-3.000 -12.000 0.019
-3.000 -11.000 0.005
-3.000 -10.000 -0.006
-3.000 -9.000 -0.007
-3.000 -8.000 0.004
-3.000 -7.000 0.022
-3.000 -6.000 0.038
-3.000 -5.000 0.043
-3.000 -4.000 0.042
-3.000 -3.000 0.049
-3.000 -2.000 0.066
-3.000 -1.000 0.084
-3.000 0.000 0.103
-3.000 1.000 0.118
-3.000 2.000 0.136
-3.000 3.000 0.153
-3.000 4.000 0.160
-3.000 5.000 0.162
-3.000 6.000 0.164
-3.000 7.000 0.159
-3.000 8.000 0.151
-3.000 9.000 0.143
-3.000 10.000 0.135
-3.000 11.000 0.128
-3.000 12.000 0.120
-3.000 13.000 0.110
-3.000 14.000 0.100
-3.000 15.000 0.094
-3.000 16.000 0.088
-3.000 17.000 0.081
-3.000 18.000 0.077
-3.000 19.000 0.070
-3.000 20.000 0.061
-3.000 21.000 0.053
-3.000 22.000 0.048
-3.000 23.000 0.048
-3.000 24.000 0.050
-3.000 25.000 0.052
-3.000 26.000 0.048
-3.000 27.000 0.044
-3.000 28.000 0.043
-3.000 29.000 0.042
-3.000 30.000 0.040
-3.000 31.000 0.037
-3.000 32.000 0.031
-3.000 33.000 0.027
-3.000 34.000 0.025
-3.000 35.000 0.024
-3.000 36.000 0.021
-3.000 37.000 0.018
-3.000 38.000 0.013
-3.000 39.000 0.008
-3.000 40.000 0.005
-3.000 41.000 0.000
-3.000 42.000 -0.004
-3.000 43.000 -0.007
-3.000 44.000 -0.009
-3.000 45.000 -0.012
-3.000 46.000 -0.015
-3.000 47.000 -0.018
-3.000 48.000 -0.020
-3.000 49.000 -0.021
-3.000 50.000 -0.022
-3.000 51.000 -0.023
-3.000 52.000 -0.023
-3.000 53.000 -0.023
-3.000 54.000 -0.023
-3.000 55.000 -0.021
-3.000 56.000 -0.019
-3.000 57.000 -0.017
-3.000 58.000 -0.014
-3.000 59.000 -0.011
-3.000 60.000 -0.007
-3.000 61.000 -0.002
-3.000 62.000 0.002
-3.000 63.000 0.007
-3.000 64.000 0.013
-3.000 65.000 0.019
-3.000 66.000 0.026
-3.000 67.000 0.032
-3.000 68.000 0.040
-3.000 69.000 0.047
-3.000 70.000 0.054
-3.000 71.000 0.061
-3.000 72.000 0.069
-3.000 73.000 0.077
-3.000 74.000 0.085
-3.000 75.000 0.093
-3.000 76.000 0.101
-3.000 77.000 0.109
-3.000 78.000 0.117
-3.000 79.000 0.125
-3.000 80.000 0.134
-3.000 81.000 0.142
-3.000 82.000 0.149
-3.000 83.000 0.157
-3.000 84.000 0.164
-3.000 85.000 0.171
-3.000 86.000 0.178
-3.000 87.000 0.185
-3.000 88.000 0.191
-3.000 89.000 0.198
-3.000 90.000 0.204
-2.000 -90.000 -0.204
-2.000 -89.000 -0.209
-2.000 -88.000 -0.214
-2.000 -87.000 -0.219
-2.000 -86.000 -0.224
-2.000 -85.000 -0.229
-2.000 -84.000 -0.233
-2.000 -83.000 -0.237
-2.000 -82.000 -0.240
-2.000 -81.000 -0.243
-2.000 -80.000 -0.246
-2.000 -79.000 -0.248
-2.000 -78.000 -0.250
-2.000 -77.000 -0.251
-2.000 -76.000 -0.253
-2.000 -75.000 -0.253
-2.000 -74.000 -0.254
-2.000 -73.000 -0.254
-2.000 -72.000 -0.253
-2.000 -71.000 -0.253
-2.000 -70.000 -0.251
-2.000 -69.000 -0.250
-2.000 -68.000 -0.248
-2.000 -67.000 -0.246
-2.000 -66.000 -0.243
-2.000 -65.000 -0.240
-2.000 -64.000 -0.236
-2.000 -63.000 -0.231
-2.000 -62.000 -0.226
-2.000 -61.000 -0.220
-2.000 -60.000 -0.214
-2.000 -59.000 -0.207
-2.000 -58.000 -0.200
-2.000 -57.000 -0.192
-2.000 -56.000 -0.183
-2.000 -55.000 -0.174
-2.000 -54.000 -0.164
-2.000 -53.000 -0.153
-2.000 -52.000 -0.142
-2.000 -51.000 -0.130
-2.000 -50.000 -0.118
-2.000 -49.000 -0.104
-2.000 -48.000 -0.091
-2.000 -47.000 -0.077
-2.000 -46.000 -0.062
-2.000 -45.000 -0.047
-2.000 -44.000 -0.032
-2.000 -43.000 -0.016
-2.000 -42.000 -0.000
-2.000 -41.000 0.015
-2.000 -40.000 0.030
-2.000 -39.000 0.044
-2.000 -38.000 0.057
-2.000 -37.000 0.070
-2.000 -36.000 0.082
-2.000 -35.000 0.092
-2.000 -34.000 0.101
-2.000 -33.000 0.109
-2.000 -32.000 0.115
-2.000 -31.000 0.119
-2.000 -30.000 0.122
-2.000 -29.000 0.123
-2.000 -28.000 0.122
-2.000 -27.000 0.118
-2.000 -26.000 0.110
-2.000 -25.000 0.101
-2.000 -24.000 0.091
-2.000 -23.000 0.083
